7.956960 7.953879 7.948650 7.942204 7.934668 7.926174 7.916912 7.907072 7.896643 7.885616 7.874070 7.862084 7.849630 7.836683 7.823269 7.809417 7.795041 7.780059 7.764582 7.748721 7.732494 7.715916 7.699039 7.681921 7.664533 7.646849 7.628892 7.610684 7.592200 7.573418 7.554342 7.534978 7.515280 7.495201 7.474799 7.454131 7.433207 7.412036 7.390652 7.369091 7.347347 7.325416 7.303328 7.281118 7.258772 7.236272 7.213632 7.190866 7.167938 7.144810 7.121527 7.098135 7.074647 7.051078 7.027447 7.003772 6.980050 6.956278 6.932458 6.908592 6.884682 6.860726 6.836730 6.812693 6.788619 6.764513 6.740366 6.716172 6.691931 6.667643 6.643303 6.618907 6.594460 6.569964 6.545413 6.520796 6.496142 6.471482 6.446834 6.422217 6.397704 6.373366 6.349143 6.324973 6.300878 6.276878 6.252947 6.229058 6.205264 6.181617 6.158106 6.134722 6.111521 6.088556 6.065842 6.043389 6.021289 5.999632 5.978345 5.957352 5.936662 5.916282 5.896173 5.876297 5.856685 5.837369 5.818310 5.799466 5.780909 5.762711 5.744887 5.727453 5.710555 5.694338 5.678692 5.663508 5.648821 5.634665 5.621006 5.607808 5.595172 5.583198 5.571875 5.561191 5.551375 5.542657 5.535188 5.529115 5.525534
7.940862 7.937068 7.931974 7.924901 7.917304 7.908905 7.899957 7.890315 7.880188 7.869441 7.858253 7.846553 7.834499 7.822021 7.809276 7.795839 7.781988 7.767208 7.752039 7.736244 7.720268 7.703998 7.687511 7.670735 7.653734 7.636437 7.618904 7.601095 7.583060 7.564759 7.546240 7.527365 7.508211 7.488607 7.468738 7.448534 7.428145 7.407537 7.386758 7.365780 7.344646 7.323327 7.301878 7.280277 7.258578 7.236753 7.214871 7.192749 7.170505 7.147919 7.125219 7.102312 7.079381 7.056386 7.033353 7.010264 6.987137 6.963956 6.940731 6.917459 6.894145 6.870787 6.847384 6.823950 6.800476 6.776981 6.753442 6.729870 6.706243 6.682568 6.658834 6.635058 6.611224 6.587357 6.563420 6.539448 6.515403 6.491328 6.467155 6.443181 6.419251 6.395731 6.372263 6.349043 6.325770 6.302556 6.279350 6.256244 6.233195 6.210295 6.187494 6.164860 6.142350 6.120038 6.097869 6.076075 6.054550 6.033578 6.012892 5.992612 5.972525 5.952702 5.933081 5.913735 5.894604 5.875772 5.857138 5.838789 5.820623 5.802744 5.784998 5.767969 5.751342 5.735817 5.720729 5.706435 5.692381 5.678772 5.665519 5.652818 5.640581 5.629032 5.618007 5.607759 5.598115 5.589380 5.581227 5.575354 5.570970
7.925630 7.921556 7.915142 7.908121 7.900476 7.892183 7.883341 7.874043 7.864196 7.853706 7.842718 7.831376 7.819678 7.807624 7.795271 7.782676 7.769336 7.754747 7.739441 7.723947 7.708241 7.692297 7.676135 7.659774 7.643166 7.626261 7.609101 7.591733 7.574142 7.556319 7.538277 7.520027 7.501414 7.482281 7.462795 7.443122 7.423262 7.403212 7.382994 7.362624 7.342087 7.321366 7.300500 7.279532 7.258462 7.237294 7.216049 7.194752 7.173188 7.151142 7.128841 7.106512 7.084146 7.061732 7.039278 7.016793 6.994264 6.971677 6.949041 6.926366 6.903651 6.880893 6.858092 6.835246 6.812373 6.789493 6.766582 6.743621 6.720612 6.697553 6.674439 6.651266 6.628053 6.604817 6.581533 6.558173 6.534750 6.511275 6.487732 6.464101 6.440750 6.418042 6.395630 6.373165 6.350684 6.328223 6.305785 6.283371 6.261047 6.238874 6.216825 6.194873 6.173046 6.151375 6.129857 6.108491 6.087534 6.067240 6.047369 6.027679 6.008191 5.988918 5.969847 5.950960 5.932316 5.913976 5.895869 5.877929 5.860178 5.842644 5.825290 5.808082 5.791709 5.776863 5.762885 5.749121 5.735643 5.722525 5.709765 5.697364 5.685496 5.674343 5.663790 5.653725 5.644262 5.635520 5.627474 5.620102 5.615413
7.914472 7.905703 7.898916 7.891555 7.884294 7.875820 7.867178 7.858100 7.848847 7.838266 7.827537 7.816466 7.805213 7.793380 7.781507 7.769403 7.757934 7.742151 7.727029 7.711728 7.696452 7.680748 7.664958 7.648978 7.632895 7.616261 7.599510 7.582560 7.565455 7.548052 7.530522 7.512797 7.495135 7.476051 7.457039 7.437853 7.418566 7.399029 7.379379 7.359587 7.339712 7.319499 7.299227 7.278856 7.258445 7.237848 7.217278 7.196656 7.176353 7.154259 7.132491 7.110696 7.088958 7.067093 7.045235 7.023346 7.001449 6.979429 6.957390 6.935314 6.913199 6.891046 6.868844 6.846600 6.824280 6.802064 6.779771 6.757431 6.735029 6.712600 6.690104 6.667552 6.644902 6.622368 6.599721 6.577003 6.554148 6.531381 6.508394 6.485329 6.461605 6.440648 6.419048 6.397401 6.375579 6.353921 6.332193 6.310491 6.288748 6.267406 6.246059 6.224801 6.203587 6.182627 6.161692 6.140895 6.119854 6.100873 6.081663 6.062619 6.043639 6.024981 6.006428 5.988048 5.969726 5.952060 5.934435 5.916967 5.899520 5.882541 5.865436 5.848471 5.830551 5.818152 5.804829 5.791711 5.778546 5.766030 5.753655 5.741622 5.729699 5.719317 5.709083 5.699310 5.689692 5.681446 5.673045 5.665273 5.655167
7.891829 7.887866 7.881649 7.874889 7.867558 7.859628 7.851188 7.842332 7.832961 7.822976 7.812521 7.801738 7.790623 7.779174 7.767446 7.755494 7.742811 7.728894 7.714274 7.699481 7.684494 7.669284 7.653876 7.638288 7.622471 7.606379 7.590054 7.573540 7.556829 7.539912 7.522799 7.505504 7.487872 7.469749 7.451299 7.432685 7.413907 7.394960 7.375863 7.356631 7.337246 7.317691 7.298003 7.278221 7.258346 7.238377 7.218336 7.198244 7.177886 7.157045 7.135948 7.114821 7.093657 7.072444 7.051192 7.029909 7.008582 6.987199 6.965767 6.944299 6.922792 6.901245 6.879657 6.858027 6.836372 6.814714 6.793031 6.771302 6.749529 6.727714 6.705851 6.683936 6.661990 6.640031 6.618033 6.595972 6.573858 6.551705 6.529496 6.507215 6.485227 6.463897 6.442876 6.421812 6.400738 6.379686 6.358657 6.337650 6.316726 6.295944 6.275273 6.254685 6.234203 6.213856 6.193636 6.173542 6.153824 6.134738 6.116041 6.097496 6.079122 6.060937 6.042928 6.025077 6.007448 5.990102 5.972970 5.955985 5.939175 5.922565 5.906122 5.889814 5.874331 5.860366 5.847258 5.834347 5.821702 5.809395 5.797419 5.785769 5.774620 5.764145 5.754226 5.744744 5.735807 5.727525 5.719861 5.712777 5.708250
7.873152 7.869622 7.864923 7.858388 7.851424 7.843755 7.835615 7.826863 7.817688 7.807955 7.797833 7.787255 7.776368 7.765102 7.753608 7.741459 7.728924 7.715490 7.701690 7.687300 7.672756 7.657958 7.642974 7.627745 7.612324 7.596654 7.580785 7.564692 7.548412 7.531921 7.515257 7.498293 7.481101 7.463521 7.445721 7.427642 7.409416 7.391018 7.372480 7.353782 7.334952 7.315969 7.296874 7.277650 7.258339 7.238919 7.219443 7.199737 7.179903 7.159727 7.139434 7.118931 7.098403 7.077811 7.057181 7.036495 7.015772 6.994998 6.974182 6.953321 6.932425 6.911488 6.890511 6.869507 6.848471 6.827420 6.806334 6.785224 6.764071 6.742882 6.721649 6.700389 6.679089 6.657774 6.636411 6.615033 6.593606 6.572175 6.550671 6.529393 6.508189 6.487424 6.466747 6.446326 6.425874 6.405477 6.385098 6.364803 6.344562 6.324443 6.304407 6.284498 6.264687 6.245018 6.225456 6.206202 6.187166 6.168602 6.150267 6.132269 6.114415 6.096760 6.079266 6.061989 6.044889 6.028038 6.011356 5.994912 5.978629 5.962594 5.946674 5.931438 5.916594 5.902834 5.889490 5.876904 5.864524 5.852537 5.840856 5.829661 5.818866 5.808677 5.798932 5.789852 5.781270 5.773457 5.766094 5.760799 5.756805
7.855253 7.852549 7.847961 7.842318 7.835740 7.828353 7.820323 7.811816 7.802820 7.793320 7.783383 7.773080 7.762381 7.751259 7.739729 7.727809 7.715413 7.702453 7.689037 7.675272 7.661188 7.646818 7.632204 7.617393 7.602371 7.587128 7.571674 7.556026 7.540174 7.524106 7.507820 7.491312 7.474554 7.457514 7.440232 7.422745 7.405069 7.387218 7.369211 7.351064 7.332780 7.314358 7.295815 7.277167 7.258405 7.239517 7.220501 7.201355 7.182041 7.162524 7.142849 7.123063 7.103180 7.083215 7.063187 7.043116 7.023001 7.002838 6.982630 6.962383 6.942096 6.921771 6.901411 6.881021 6.860602 6.840160 6.819691 6.799188 6.778655 6.758094 6.737504 6.716881 6.696233 6.675565 6.654871 6.634144 6.613417 6.592718 6.572071 6.551498 6.531072 6.510864 6.490817 6.470870 6.451015 6.431247 6.411548 6.391900 6.372328 6.352857 6.333485 6.314213 6.295068 6.276076 6.257261 6.238644 6.220283 6.202235 6.184455 6.166898 6.149556 6.132422 6.115483 6.098722 6.082158 6.065806 6.049652 6.033679 6.017945 6.002505 5.987401 5.972671 5.958452 5.944886 5.931858 5.919254 5.907088 5.895374 5.884073 5.873153 5.862689 5.852763 5.843358 5.834460 5.826258 5.818937 5.812642 5.807519 5.804494
7.840061 7.836391 7.832057 7.826705 7.820865 7.813337 7.805507 7.797182 7.788455 7.779056 7.769300 7.759170 7.748818 7.737632 7.726241 7.714500 7.702466 7.689739 7.676733 7.663411 7.649909 7.635839 7.621634 7.607227 7.592639 7.577791 7.562760 7.547536 7.532151 7.516460 7.500604 7.484540 7.468288 7.451708 7.434947 7.417994 7.400897 7.383549 7.366080 7.348473 7.330744 7.312856 7.294863 7.276762 7.258595 7.240177 7.221690 7.203084 7.184382 7.165423 7.146377 7.127230 7.108040 7.088648 7.069235 7.049775 7.030277 7.010717 6.991118 6.971479 6.951805 6.932089 6.912342 6.892566 6.872759 6.852935 6.833079 6.813193 6.793269 6.773347 6.753390 6.733407 6.713395 6.693395 6.673362 6.653311 6.633197 6.613312 6.593399 6.573547 6.553735 6.534234 6.514787 6.495425 6.476071 6.457007 6.437943 6.418941 6.399996 6.381188 6.362462 6.343838 6.325294 6.307023 6.288867 6.270893 6.253086 6.235665 6.218421 6.201382 6.184488 6.167936 6.151520 6.135283 6.119212 6.103408 6.087767 6.072315 6.056966 6.042278 6.027753 6.013562 5.999660 5.986578 5.973802 5.961404 5.949203 5.937953 5.926912 5.916261 5.905976 5.896417 5.887277 5.878665 5.870362 5.863929 5.858018 5.853225 5.849157
7.823353 7.820899 7.816730 7.811582 7.805523 7.798622 7.791042 7.782947 7.774321 7.765146 7.755504 7.745478 7.735051 7.724208 7.713001 7.701483 7.689601 7.677305 7.664660 7.651732 7.638514 7.624994 7.611220 7.597241 7.583050 7.568636 7.554017 7.539207 7.524198 7.508981 7.493565 7.477956 7.462135 7.446083 7.429826 7.413391 7.396783 7.380003 7.363070 7.346002 7.328797 7.311458 7.293996 7.276425 7.258734 7.240908 7.222963 7.204911 7.186733 7.168409 7.149969 7.131439 7.112818 7.094102 7.075313 7.056472 7.037580 7.018635 6.999644 6.980611 6.961542 6.942439 6.923305 6.904142 6.884953 6.865740 6.846502 6.827237 6.807947 6.788638 6.769310 6.749964 6.730610 6.711257 6.691901 6.672539 6.653206 6.633935 6.614721 6.595555 6.576485 6.557553 6.538726 6.519973 6.501313 6.482767 6.464312 6.445926 6.427629 6.409440 6.391358 6.373383 6.355539 6.337855 6.320333 6.302976 6.285824 6.268917 6.252226 6.235721 6.219415 6.203314 6.187407 6.171682 6.156156 6.140849 6.125750 6.110849 6.096208 6.081889 6.067879 6.054165 6.040831 6.027963 6.015494 6.003358 5.991615 5.980325 5.969463 5.959004 5.949038 5.939652 5.930831 5.922560 5.915020 5.908400 5.902771 5.898206 5.895517
7.809097 7.806307 7.802382 7.797012 7.791024 7.784299 7.777092 7.769135 7.760734 7.751608 7.742094 7.732025 7.721698 7.711024 7.700074 7.688760 7.677152 7.665153 7.652868 7.640262 7.627421 7.614317 7.601012 7.587441 7.573681 7.559667 7.545466 7.531042 7.516451 7.501671 7.486719 7.471560 7.456214 7.440638 7.424882 7.408936 7.392838 7.376583 7.360197 7.343654 7.326987 7.310168 7.293239 7.276170 7.259006 7.241722 7.224341 7.206837 7.189229 7.171487 7.153650 7.135707 7.117692 7.099595 7.081442 7.063212 7.044936 7.026594 7.008210 6.989776 6.971313 6.952819 6.934296 6.915746 6.897171 6.878575 6.859954 6.841312 6.822645 6.803959 6.785247 6.766541 6.747826 6.729138 6.710445 6.691795 6.673152 6.654556 6.635993 6.617512 6.599096 6.580807 6.562593 6.544485 6.526443 6.508494 6.490608 6.472843 6.455155 6.437603 6.420148 6.402835 6.385627 6.368561 6.351631 6.334887 6.318316 6.301989 6.285843 6.269906 6.254133 6.238546 6.223114 6.207909 6.192882 6.178117 6.163535 6.149233 6.135127 6.121298 6.107711 6.094471 6.081536 6.069036 6.056852 6.045066 6.033574 6.022458 6.011612 6.001360 5.991517 5.982443 5.973839 5.966041 5.958759 5.952276 5.946460 5.942209 5.939188
7.795599 7.792850 7.788341 7.783059 7.777075 7.770457 7.763318 7.755767 7.747562 7.738458 7.728773 7.718828 7.708612 7.698117 7.687353 7.676330 7.664993 7.653287 7.641277 7.629028 7.616547 7.603840 7.590929 7.577832 7.564500 7.550883 7.537042 7.523041 7.508874 7.494535 7.480027 7.465351 7.450477 7.435374 7.420081 7.404632 7.389034 7.373294 7.357421 7.341430 7.325294 7.308989 7.292550 7.276013 7.259375 7.242636 7.225799 7.208867 7.191825 7.174660 7.157393 7.140049 7.122629 7.105142 7.087595 7.069998 7.052336 7.034595 7.016799 6.998972 6.981113 6.963227 6.945314 6.927376 6.909416 6.891436 6.873435 6.855412 6.837368 6.819306 6.801226 6.783128 6.765049 6.747025 6.729033 6.711046 6.693079 6.675144 6.657250 6.639403 6.621637 6.603985 6.586423 6.568930 6.551508 6.534162 6.516887 6.499682 6.482594 6.465672 6.448879 6.432181 6.415594 6.399133 6.382808 6.366624 6.350631 6.334876 6.319320 6.303926 6.288693 6.273625 6.258716 6.243958 6.229427 6.215201 6.201220 6.187420 6.173827 6.160464 6.147343 6.134473 6.121931 6.109795 6.098000 6.086481 6.075251 6.064320 6.053676 6.043308 6.033558 6.024763 6.016665 6.009007 6.001906 5.995484 5.989818 5.984983 5.982038
7.784848 7.779782 7.775071 7.769585 7.763758 7.756984 7.749953 7.742533 7.735291 7.725378 7.715713 7.705815 7.695807 7.685431 7.674891 7.664117 7.653203 7.641634 7.629927 7.617999 7.605896 7.593540 7.581031 7.568349 7.555604 7.542219 7.528779 7.515187 7.501469 7.487555 7.473503 7.459291 7.444969 7.430254 7.415434 7.400465 7.385375 7.370123 7.354765 7.339294 7.323771 7.307887 7.291961 7.275942 7.259846 7.243638 7.227352 7.210978 7.194543 7.177907 7.161217 7.144455 7.127635 7.110739 7.093798 7.076811 7.059816 7.042617 7.025419 7.008191 6.990942 6.973661 6.956357 6.939030 6.921678 6.904320 6.886937 6.869535 6.852110 6.834681 6.817224 6.799752 6.782215 6.764942 6.747614 6.730294 6.712974 6.695706 6.678459 6.661256 6.644065 6.627114 6.610184 6.593318 6.576499 6.559775 6.543097 6.526485 6.509868 6.493689 6.477516 6.461435 6.445434 6.429586 6.413842 6.398233 6.382708 6.367627 6.352638 6.337801 6.323087 6.308572 6.294168 6.279907 6.265666 6.252179 6.238723 6.225437 6.212296 6.199422 6.186724 6.174255 6.161920 6.150326 6.138871 6.127663 6.116628 6.105989 6.095465 6.085185 6.074641 6.066945 6.059055 6.051579 6.044376 6.038178 6.032343 6.027332 6.021944
7.769146 7.766361 7.761796 7.756454 7.750417 7.743768 7.736628 7.729118 7.721005 7.712054 7.702583 7.692910 7.683023 7.672911 7.662581 7.652044 7.641243 7.630118 7.618733 7.607148 7.595366 7.583392 7.571240 7.558928 7.546402 7.533607 7.520605 7.507460 7.494164 7.480711 7.467103 7.453343 7.439399 7.425240 7.410902 7.396422 7.381806 7.367057 7.352188 7.337211 7.322099 7.306828 7.291431 7.275949 7.260377 7.244718 7.228974 7.213150 7.197232 7.181207 7.165096 7.148919 7.132678 7.116379 7.100027 7.083630 7.067173 7.050638 7.034049 7.017432 7.000787 6.984117 6.967423 6.950708 6.933976 6.917228 6.900463 6.883683 6.866889 6.850084 6.833268 6.816443 6.799646 6.782916 6.766223 6.749542 6.732880 6.716249 6.699653 6.683096 6.666608 6.650220 6.633910 6.617658 6.601467 6.585344 6.569286 6.553293 6.537414 6.521699 6.506110 6.490611 6.475215 6.459937 6.444784 6.429760 6.414914 6.400289 6.385849 6.371553 6.357405 6.343408 6.329555 6.315837 6.302334 6.289124 6.276136 6.263309 6.250658 6.238203 6.225950 6.213904 6.202136 6.190719 6.179586 6.168673 6.157989 6.147545 6.137328 6.127325 6.117876 6.109320 6.101406 6.093880 6.086872 6.080509 6.074877 6.070058 6.067117
7.756231 7.753320 7.749296 7.743766 7.737688 7.730865 7.723670 7.715759 7.707556 7.698745 7.689655 7.680137 7.670465 7.660563 7.650480 7.640145 7.629604 7.618776 7.607739 7.596470 7.585029 7.573396 7.561611 7.549618 7.537467 7.525098 7.512576 7.499861 7.487014 7.474007 7.460857 7.447529 7.434044 7.420354 7.406511 7.392503 7.378368 7.364098 7.349720 7.335205 7.320587 7.305837 7.290990 7.276033 7.260997 7.245875 7.230678 7.215391 7.200027 7.184570 7.169042 7.153440 7.137780 7.122063 7.106299 7.090475 7.074607 7.058677 7.042708 7.026695 7.010658 6.994596 6.978512 6.962408 6.946288 6.930155 6.914006 6.897848 6.881680 6.865505 6.849322 6.833161 6.817011 6.800907 6.784822 6.768780 6.752755 6.736764 6.720805 6.704903 6.689053 6.673286 6.657579 6.641946 6.626369 6.610861 6.595412 6.580063 6.564796 6.549661 6.534615 6.519700 6.504878 6.490179 6.475595 6.461173 6.446898 6.432829 6.418913 6.405175 6.391572 6.378126 6.364804 6.351682 6.338710 6.325972 6.313393 6.301032 6.288823 6.276808 6.264970 6.253376 6.242001 6.230933 6.220082 6.209500 6.199110 6.188962 6.178977 6.169450 6.160219 6.151636 6.143366 6.135850 6.128724 6.122374 6.116596 6.112391 6.109349
7.744058 7.741392 7.736950 7.731625 7.725418 7.718331 7.710658 7.702692 7.694392 7.685713 7.676730 7.667518 7.658074 7.648396 7.638513 7.628450 7.618172 7.607642 7.596896 7.585967 7.574854 7.563554 7.552085 7.540465 7.528687 7.516739 7.504637 7.492395 7.480002 7.467444 7.454731 7.441873 7.428843 7.415621 7.402234 7.388709 7.375047 7.361245 7.347323 7.333300 7.319174 7.304941 7.290612 7.276196 7.261695 7.247110 7.232448 7.217711 7.202898 7.188005 7.173042 7.158017 7.142933 7.127793 7.112603 7.097365 7.082082 7.066752 7.051384 7.035982 7.020552 7.005095 6.989618 6.974124 6.958617 6.943096 6.927565 6.912024 6.896479 6.880936 6.865397 6.849870 6.834360 6.818880 6.803427 6.788001 6.772605 6.757247 6.741930 6.726657 6.711441 6.696291 6.681204 6.666176 6.651213 6.636320 6.621499 6.606753 6.592093 6.577535 6.563070 6.548698 6.534437 6.520308 6.506309 6.492439 6.478732 6.465217 6.451869 6.438663 6.425610 6.412718 6.399977 6.387376 6.374931 6.362662 6.350556 6.338603 6.326824 6.315236 6.303839 6.292630 6.281648 6.270931 6.260440 6.250137 6.240053 6.230216 6.220624 6.211278 6.202256 6.193637 6.185376 6.177430 6.170094 6.163665 6.158152 6.153560 6.150805
7.734551 7.730269 7.725488 7.719783 7.714027 7.705873 7.697937 7.689811 7.681606 7.672878 7.664034 7.655010 7.645917 7.636354 7.626723 7.616927 7.606992 7.596687 7.586234 7.575607 7.564867 7.553836 7.542709 7.531451 7.520076 7.508514 7.496838 7.485039 7.473154 7.461000 7.448751 7.436357 7.423838 7.411026 7.398092 7.385021 7.371865 7.358479 7.345028 7.331487 7.317867 7.304133 7.290322 7.276432 7.262475 7.248414 7.234292 7.220101 7.205848 7.191505 7.177105 7.162647 7.148143 7.133567 7.118953 7.104296 7.089603 7.074862 7.060091 7.045291 7.030470 7.015614 7.000741 6.985855 6.970957 6.956049 6.941133 6.926210 6.911278 6.896372 6.881465 6.866569 6.851683 6.836834 6.822005 6.807203 6.792418 6.777700 6.763011 6.748365 6.733762 6.719241 6.704769 6.690355 6.675988 6.661723 6.647511 6.633368 6.619292 6.605328 6.591434 6.577622 6.563866 6.550341 6.536892 6.523575 6.510374 6.497468 6.484682 6.472039 6.459485 6.447208 6.435012 6.422938 6.410978 6.399213 6.387565 6.376051 6.364633 6.353519 6.342520 6.331699 6.321031 6.310748 6.300609 6.290643 6.280749 6.271350 6.262026 6.252894 6.243891 6.235435 6.227073 6.218917 6.210556 6.204638 6.198787 6.193888 6.189508
7.722890 7.719646 7.714301 7.707992 7.700897 7.693195 7.685146 7.677009 7.668706 7.660161 7.651430 7.642570 7.633559 7.624378 7.615036 7.605542 7.595842 7.585879 7.575703 7.565360 7.554860 7.544215 7.533441 7.522553 7.511544 7.500401 7.489138 7.477767 7.466276 7.454649 7.442882 7.430969 7.418872 7.406554 7.394054 7.381418 7.368655 7.355778 7.342805 7.329754 7.316620 7.303401 7.290103 7.276734 7.263293 7.249780 7.236199 7.222555 7.208843 7.195062 7.181220 7.167323 7.153376 7.139380 7.125340 7.111264 7.097152 7.083004 7.068825 7.054622 7.040395 7.026145 7.011877 6.997599 6.983309 6.969012 6.954710 6.940405 6.926103 6.911809 6.897526 6.883255 6.869000 6.854770 6.840565 6.826384 6.812234 6.798124 6.784055 6.770029 6.756055 6.742142 6.728287 6.714487 6.700747 6.687074 6.673464 6.659917 6.646443 6.633050 6.619735 6.606491 6.593339 6.580298 6.567379 6.554593 6.541985 6.529597 6.517391 6.505328 6.493404 6.481616 6.469950 6.458388 6.446949 6.435647 6.424469 6.413404 6.402471 6.391688 6.381067 6.370616 6.360384 6.350420 6.340670 6.331077 6.321652 6.312409 6.303326 6.294380 6.285632 6.277140 6.268826 6.260612 6.252764 6.245543 6.239128 6.233696 6.230404
7.714469 7.709740 7.704077 7.696057 7.688375 7.680369 7.672442 7.664236 7.656049 7.647537 7.638956 7.630174 7.621372 7.612455 7.603501 7.594295 7.584954 7.575221 7.565338 7.555201 7.544999 7.534682 7.524283 7.513762 7.503146 7.492392 7.481545 7.470579 7.459532 7.448377 7.437157 7.425711 7.414129 7.402209 7.390155 7.377884 7.365559 7.353142 7.340661 7.328093 7.315460 7.302741 7.289956 7.277098 7.264183 7.251203 7.238170 7.225068 7.211909 7.198675 7.185388 7.172041 7.158657 7.145228 7.131765 7.118266 7.104734 7.091172 7.077584 7.063971 7.050340 7.036690 7.023026 7.009351 6.995669 6.981981 6.968291 6.954603 6.940918 6.927242 6.913577 6.899927 6.886294 6.872685 6.859098 6.845542 6.832012 6.818519 6.805057 6.791649 6.778286 6.764993 6.751750 6.738571 6.725441 6.712370 6.699351 6.686401 6.673513 6.660708 6.647964 6.635303 6.622703 6.610192 6.597732 6.585488 6.573376 6.561599 6.549957 6.538541 6.527188 6.515944 6.504780 6.493736 6.482785 6.471974 6.461258 6.450666 6.440158 6.429769 6.419445 6.409380 6.399467 6.389951 6.380573 6.371453 6.362375 6.353418 6.344486 6.335763 6.327118 6.318804 6.310479 6.302445 6.294344 6.286578 6.278486 6.272771 6.268006
7.706673 7.700767 7.692091 7.683785 7.675643 7.667466 7.659362 7.651443 7.643416 7.634985 7.626371 7.617797 7.609212 7.600570 7.591887 7.583183 7.574208 7.564712 7.554932 7.545105 7.535211 7.525233 7.515180 7.505063 7.494841 7.484476 7.474007 7.463470 7.452861 7.442168 7.431406 7.420590 7.409520 7.397999 7.386226 7.374403 7.362523 7.350573 7.338561 7.326498 7.314365 7.302148 7.289860 7.277521 7.265128 7.252680 7.240183 7.227637 7.215029 7.202339 7.189589 7.176800 7.163975 7.151114 7.138220 7.125297 7.112346 7.099366 7.086362 7.073340 7.060301 7.047248 7.034184 7.021112 7.008034 6.994954 6.981874 6.968798 6.955727 6.942666 6.929617 6.916583 6.903568 6.890578 6.877612 6.864671 6.851759 6.838880 6.826034 6.813223 6.800469 6.787793 6.775178 6.762608 6.750085 6.737614 6.725194 6.712825 6.700522 6.688303 6.676152 6.664052 6.652009 6.640036 6.628119 6.616251 6.604633 6.593466 6.582552 6.571692 6.560902 6.550193 6.539558 6.528990 6.518527 6.508207 6.497993 6.487844 6.477770 6.467783 6.457863 6.447991 6.438406 6.429343 6.420554 6.411787 6.403064 6.394403 6.385753 6.377069 6.368570 6.360479 6.352503 6.344347 6.336121 6.327938 6.319596 6.310896 6.304975
7.704780 7.689362 7.679738 7.670508 7.662950 7.654082 7.646096 7.638312 7.631188 7.622209 7.613747 7.605338 7.597113 7.588630 7.580294 7.571948 7.563983 7.554098 7.544573 7.535011 7.525508 7.515823 7.506142 7.496405 7.486679 7.476602 7.466534 7.456407 7.446272 7.435975 7.425711 7.415399 7.405365 7.393715 7.382345 7.370932 7.359555 7.348038 7.336513 7.324943 7.313356 7.301597 7.289817 7.277990 7.266128 7.254200 7.242241 7.230240 7.218230 7.206032 7.193829 7.181592 7.169330 7.157029 7.144704 7.132354 7.119985 7.107580 7.095160 7.082725 7.070277 7.057817 7.045350 7.032877 7.020401 7.007927 6.995454 6.982987 6.970527 6.958079 6.945643 6.933224 6.920819 6.908450 6.896100 6.883775 6.871474 6.859212 6.846975 6.834772 6.822574 6.810564 6.798563 6.786603 6.774676 6.762814 6.750987 6.739207 6.727447 6.715861 6.704290 6.692766 6.681249 6.669872 6.658459 6.647089 6.635439 6.625405 6.615093 6.604829 6.594532 6.584397 6.574271 6.564202 6.554126 6.544399 6.534662 6.524981 6.515297 6.505794 6.496232 6.486707 6.476821 6.468856 6.460510 6.452174 6.443691 6.435466 6.427057 6.418595 6.409616 6.402492 6.394708 6.386722 6.377854 6.370296 6.361066 6.351442 6.336024
7.677977 7.672163 7.663652 7.655564 7.647689 7.639818 7.632059 7.624521 7.616905 7.608915 7.600772 7.592697 7.584638 7.576544 7.568437 7.560330 7.551976 7.543121 7.534003 7.524858 7.515666 7.506410 7.497097 7.487738 7.478292 7.468720 7.459061 7.449351 7.439584 7.429748 7.419859 7.409930 7.399760 7.389152 7.378306 7.367424 7.356496 7.345510 7.334476 7.323402 7.312271 7.301065 7.289801 7.278495 7.267147 7.255754 7.244322 7.232852 7.221327 7.209730 7.198083 7.186406 7.174701 7.162968 7.151210 7.139431 7.127631 7.115810 7.103972 7.092122 7.080261 7.068393 7.056520 7.044644 7.032769 7.020897 7.009029 6.997169 6.985317 6.973479 6.961656 6.949849 6.938063 6.926302 6.914565 6.902854 6.891172 6.879520 6.867902 6.856316 6.844783 6.833325 6.821926 6.810565 6.799248 6.787977 6.776752 6.765570 6.754448 6.743403 6.732417 6.721473 6.710579 6.699744 6.688956 6.678205 6.667694 6.657622 6.647789 6.637999 6.628263 6.618593 6.608983 6.599422 6.589949 6.580601 6.571338 6.562122 6.552960 6.543863 6.534810 6.525784 6.517018 6.508751 6.500731 6.492705 6.484694 6.476712 6.468710 6.460638 6.452715 6.445164 6.437684 6.429978 6.422154 6.414321 6.406268 6.397783 6.391983
7.656989 7.652479 7.647145 7.639575 7.632425 7.625040 7.617802 7.610359 7.602996 7.595372 7.587731 7.579947 7.572196 7.564383 7.556578 7.548571 7.540469 7.532021 7.523461 7.514689 7.505891 7.497019 7.488099 7.479095 7.470031 7.460865 7.451638 7.442326 7.432962 7.423522 7.414048 7.404376 7.394595 7.384504 7.374305 7.363914 7.353494 7.343008 7.332480 7.321892 7.311259 7.300566 7.289827 7.279037 7.268210 7.257341 7.246438 7.235486 7.224495 7.213449 7.202367 7.191246 7.180099 7.168928 7.157737 7.146526 7.135298 7.124053 7.112796 7.101529 7.090254 7.078976 7.067694 7.056413 7.045135 7.033861 7.022596 7.011340 7.000096 6.988865 6.977651 6.966455 6.955281 6.944132 6.933006 6.921908 6.910839 6.899801 6.888795 6.877835 6.866918 6.856061 6.845249 6.834491 6.823773 6.813102 6.802473 6.791898 6.781374 6.770914 6.760502 6.750154 6.739852 6.729618 6.719416 6.709406 6.699509 6.689920 6.680446 6.671167 6.661925 6.652760 6.643645 6.634616 6.625647 6.616778 6.607969 6.599241 6.590559 6.581950 6.573363 6.564987 6.556717 6.548791 6.540956 6.533317 6.525665 6.518068 6.510434 6.502934 6.495445 6.488208 6.480884 6.473753 6.466465 6.459397 6.451900 6.446617 6.442142
7.636552 7.633620 7.628810 7.623169 7.616878 7.610112 7.603114 7.596120 7.589055 7.581843 7.574532 7.567167 7.559734 7.552211 7.544601 7.536903 7.529064 7.521029 7.512843 7.504547 7.496153 7.487674 7.479123 7.470511 7.461830 7.453071 7.444241 7.435349 7.426384 7.417333 7.408186 7.398934 7.389540 7.379965 7.370250 7.360432 7.350527 7.340548 7.330508 7.320424 7.310293 7.300112 7.289886 7.279618 7.269310 7.258964 7.248580 7.238160 7.227701 7.217203 7.206670 7.196108 7.185520 7.174911 7.164282 7.153637 7.142979 7.132308 7.121630 7.110943 7.100251 7.089559 7.078867 7.068179 7.057494 7.046818 7.036152 7.025499 7.014859 7.004235 6.993628 6.983041 6.972477 6.961936 6.951420 6.940933 6.930476 6.920052 6.909662 6.899313 6.889009 6.878750 6.868540 6.858377 6.848257 6.838183 6.828156 6.818177 6.808250 6.798378 6.788559 6.778790 6.769085 6.759459 6.749925 6.740497 6.731211 6.722107 6.713148 6.704298 6.695544 6.686876 6.678281 6.669748 6.661284 6.652896 6.644577 6.636315 6.628124 6.620013 6.611995 6.604083 6.596317 6.588741 6.581301 6.573942 6.566663 6.559462 6.552320 6.545222 6.538214 6.531339 6.524522 6.517687 6.511068 6.504903 6.499369 6.494644 6.491763
7.619044 7.615357 7.611303 7.606516 7.601804 7.594950 7.588420 7.581824 7.575263 7.568330 7.561384 7.554364 7.547360 7.540031 7.532712 7.525312 7.517855 7.510129 7.502333 7.494440 7.486500 7.478371 7.470208 7.461984 7.453709 7.445333 7.436905 7.428415 7.419891 7.411184 7.402430 7.393584 7.384663 7.375516 7.366296 7.356987 7.347635 7.338121 7.328581 7.318996 7.309375 7.299698 7.289985 7.280233 7.270448 7.260619 7.250759 7.240868 7.230947 7.220988 7.211003 7.200993 7.190962 7.180910 7.170843 7.160763 7.150671 7.140574 7.130470 7.120362 7.110250 7.100144 7.090039 7.079939 7.069846 7.059764 7.049694 7.039640 7.029609 7.019583 7.009582 6.999602 6.989650 6.979713 6.969806 6.959927 6.950083 6.940267 6.930489 6.920750 6.911051 6.901397 6.891786 6.882219 6.872696 6.863220 6.853790 6.844407 6.835073 6.825795 6.816564 6.807385 6.798242 6.789259 6.780328 6.771491 6.762733 6.754198 6.745744 6.737385 6.729078 6.720946 6.712854 6.704824 6.696846 6.688960 6.681125 6.673349 6.665607 6.658041 6.650521 6.643093 6.635730 6.628621 6.621565 6.614580 6.607581 6.600883 6.594163 6.587505 6.580848 6.574536 6.568178 6.561866 6.555220 6.550670 6.546030 6.542093 6.538503
7.599592 7.597460 7.593943 7.589788 7.584971 7.579465 7.573547 7.567495 7.561269 7.554830 7.548236 7.541546 7.534751 7.527843 7.520847 7.513780 7.506608 7.499300 7.491882 7.484378 7.476787 7.469100 7.461336 7.453509 7.445614 7.437647 7.429612 7.421516 7.413344 7.405082 7.396735 7.388310 7.379786 7.371142 7.362401 7.353585 7.344692 7.335720 7.326685 7.317607 7.308486 7.299322 7.290119 7.280880 7.271609 7.262303 7.252967 7.243604 7.234213 7.224798 7.215359 7.205899 7.196421 7.186926 7.177417 7.167900 7.158375 7.148847 7.139317 7.129785 7.120255 7.110728 7.101207 7.091693 7.082188 7.072695 7.063218 7.053760 7.044322 7.034904 7.025509 7.016139 7.006789 6.997462 6.988159 6.978888 6.969647 6.960443 6.951275 6.942146 6.933054 6.924001 6.914989 6.906017 6.897089 6.888209 6.879376 6.870590 6.861854 6.853165 6.844528 6.835945 6.827432 6.819006 6.810665 6.802405 6.794245 6.786208 6.778272 6.770418 6.762652 6.754978 6.747382 6.739846 6.732376 6.724972 6.717631 6.710351 6.703143 6.696025 6.688991 6.682034 6.675179 6.668448 6.661809 6.655230 6.648730 6.642328 6.636017 6.629786 6.623690 6.617782 6.612025 6.606381 6.601124 6.596528 6.592562 6.589196 6.587151
7.582271 7.580140 7.577219 7.573204 7.568827 7.563919 7.558810 7.553210 7.547489 7.541395 7.535184 7.528733 7.522253 7.515681 7.509051 7.502314 7.495499 7.488550 7.481514 7.474375 7.467167 7.459877 7.452525 7.445089 7.437594 7.430017 7.422380 7.414663 7.406887 7.399035 7.391118 7.383112 7.375030 7.366843 7.358580 7.350234 7.341828 7.333355 7.324834 7.316256 7.307639 7.298981 7.290288 7.281560 7.272802 7.264016 7.255203 7.246366 7.237507 7.228630 7.219734 7.210823 7.201896 7.192955 7.184002 7.175044 7.166081 7.157124 7.148164 7.139210 7.130256 7.121308 7.112367 7.103436 7.094516 7.085610 7.076723 7.067856 7.059014 7.050198 7.041414 7.032647 7.023909 7.015180 7.006484 6.997809 6.989176 6.980581 6.972026 6.963503 6.955019 6.946564 6.938148 6.929770 6.921438 6.913153 6.904917 6.896726 6.888584 6.880486 6.872440 6.864455 6.856534 6.848692 6.840921 6.833239 6.825637 6.818137 6.810719 6.803391 6.796134 6.788959 6.781848 6.774813 6.767837 6.760929 6.754079 6.747303 6.740589 6.733953 6.727384 6.720905 6.714504 6.708216 6.701994 6.695864 6.689780 6.683774 6.677790 6.672016 6.666343 6.661003 6.655760 6.650974 6.646368 6.642264 6.638496 6.635756 6.633754
7.565477 7.563610 7.560552 7.556980 7.552964 7.548573 7.543901 7.539044 7.533828 7.528081 7.522042 7.515951 7.509799 7.503574 7.497282 7.490925 7.484470 7.477885 7.471199 7.464441 7.457613 7.450714 7.443750 7.436728 7.429633 7.422444 7.415183 7.407866 7.400492 7.393055 7.385555 7.377991 7.370349 7.362618 7.354812 7.346944 7.339018 7.331040 7.323012 7.314942 7.306829 7.298676 7.290487 7.282269 7.274024 7.265754 7.257463 7.249150 7.240820 7.232481 7.224128 7.215762 7.207384 7.198997 7.190599 7.182194 7.173791 7.165401 7.157017 7.148633 7.140254 7.131881 7.123518 7.115166 7.106828 7.098505 7.090203 7.081926 7.073677 7.065458 7.057273 7.049127 7.040997 7.032867 7.024758 7.016691 7.008665 7.000678 6.992730 6.984823 6.976946 6.969088 6.961260 6.953477 6.945739 6.938046 6.930402 6.922811 6.915265 6.907756 6.900297 6.892901 6.885569 6.878305 6.871111 6.863990 6.856946 6.849985 6.843101 6.836289 6.829547 6.822874 6.816266 6.809721 6.803240 6.796827 6.790480 6.784194 6.777971 6.771815 6.765725 6.759700 6.753758 6.747919 6.742158 6.736450 6.730796 6.725201 6.719654 6.714147 6.708898 6.704125 6.699673 6.695386 6.691353 6.687664 6.684382 6.681576 6.679866
7.550550 7.547335 7.544399 7.541016 7.537477 7.533369 7.529179 7.524813 7.520698 7.514675 7.508952 7.503170 7.497416 7.491505 7.485576 7.479583 7.473574 7.467275 7.460955 7.454566 7.448128 7.441604 7.435033 7.428407 7.421763 7.414909 7.408040 7.401121 7.394159 7.387130 7.380056 7.372927 7.365760 7.358449 7.351102 7.343703 7.336263 7.328768 7.321234 7.313662 7.306061 7.298399 7.290715 7.283005 7.275270 7.267516 7.259744 7.251954 7.244145 7.236349 7.228537 7.220716 7.212883 7.205049 7.197204 7.189355 7.181489 7.173686 7.165869 7.158055 7.150245 7.142444 7.134655 7.126880 7.119125 7.111378 7.103658 7.095967 7.088311 7.080680 7.073096 7.065553 7.058087 7.050499 7.042990 7.035526 7.028115 7.020730 7.013393 7.006096 6.998854 6.991563 6.984329 6.977136 6.969993 6.962886 6.955834 6.948835 6.941907 6.934962 6.928092 6.921282 6.914536 6.907852 6.901230 6.894672 6.888172 6.881763 6.875411 6.869122 6.862893 6.856728 6.850621 6.844573 6.838574 6.832674 6.826821 6.821027 6.815287 6.809619 6.804001 6.798443 6.792910 6.787580 6.782269 6.777007 6.771755 6.766634 6.761478 6.756368 6.750977 6.747317 6.743420 6.739674 6.735997 6.732827 6.729793 6.727157 6.724265
7.532379 7.530778 7.528185 7.525208 7.521884 7.518248 7.514372 7.510329 7.505926 7.500967 7.495697 7.490359 7.484946 7.479453 7.473888 7.468258 7.462535 7.456688 7.450747 7.444742 7.438672 7.432539 7.426348 7.420105 7.413793 7.407393 7.400927 7.394416 7.387858 7.381252 7.374598 7.367898 7.361140 7.354314 7.347432 7.340508 7.333541 7.326534 7.319489 7.312410 7.305296 7.298145 7.290965 7.283762 7.276537 7.269298 7.262043 7.254777 7.247505 7.240233 7.232958 7.225679 7.218396 7.211111 7.203822 7.196532 7.189249 7.181982 7.174726 7.167474 7.160230 7.152996 7.145777 7.138573 7.131388 7.124223 7.117082 7.109972 7.102896 7.095857 7.088857 7.081902 7.074974 7.068052 7.061157 7.054308 7.047502 7.040735 7.034005 7.027311 7.020640 7.013979 7.007342 7.000744 6.994186 6.987671 6.981205 6.974790 6.968422 6.962095 6.955818 6.949599 6.943438 6.937335 6.931287 6.925294 6.919359 6.913482 6.907663 6.901896 6.896183 6.890525 6.884923 6.879375 6.873889 6.868469 6.863111 6.857808 6.852561 6.847373 6.842239 6.837159 6.832148 6.827223 6.822366 6.817555 6.812798 6.808101 6.803461 6.798873 6.794561 6.790747 6.787251 6.783895 6.780741 6.777855 6.775264 6.772995 6.771591
7.515810 7.514360 7.512352 7.509612 7.506604 7.503264 7.499731 7.495821 7.491709 7.487191 7.482511 7.477562 7.472556 7.467444 7.462264 7.456978 7.451618 7.446148 7.440603 7.434971 7.429280 7.423523 7.417715 7.411837 7.405908 7.399908 7.393860 7.387753 7.381607 7.375417 7.369187 7.362909 7.356589 7.350218 7.343805 7.337350 7.330860 7.324334 7.317778 7.311188 7.304568 7.297916 7.291238 7.284540 7.277822 7.271094 7.264354 7.257612 7.250865 7.244125 7.237385 7.230649 7.223912 7.217178 7.210443 7.203717 7.196993 7.190281 7.183577 7.176886 7.170204 7.163535 7.156882 7.150246 7.143631 7.137039 7.130475 7.123942 7.117445 7.110987 7.104573 7.098191 7.091852 7.085539 7.079277 7.073038 7.066851 7.060694 7.054579 7.048483 7.042417 7.036352 7.030318 7.024305 7.018337 7.012403 7.006522 7.000679 6.994896 6.989161 6.983485 6.977855 6.972283 6.966760 6.961289 6.955864 6.950487 6.945150 6.939860 6.934614 6.929417 6.924267 6.919169 6.914124 6.909138 6.904212 6.899345 6.894534 6.889778 6.885075 6.880424 6.875834 6.871299 6.866832 6.862416 6.858072 6.853779 6.849563 6.845391 6.841447 6.837647 6.834208 6.830944 6.828002 6.825219 6.822706 6.820412 6.818729 6.817513
7.499613 7.498503 7.496615 7.494284 7.491554 7.488476 7.485108 7.481513 7.477674 7.473577 7.469275 7.464823 7.460229 7.455503 7.450675 7.445770 7.440776 7.435683 7.430506 7.425260 7.419944 7.414559 7.409115 7.403621 7.398074 7.392474 7.386825 7.381130 7.375395 7.369622 7.363811 7.357965 7.352081 7.346164 7.340212 7.334228 7.328212 7.322169 7.316098 7.309997 7.303868 7.297715 7.291536 7.285336 7.279122 7.272903 7.266680 7.260451 7.254229 7.248020 7.241820 7.235622 7.229429 7.223248 7.217073 7.210899 7.204732 7.198573 7.192425 7.186289 7.180165 7.174057 7.167968 7.161898 7.155850 7.149826 7.143832 7.137875 7.131953 7.126070 7.120229 7.114434 7.108684 7.102977 7.097320 7.091717 7.086153 7.080610 7.075098 7.069622 7.064161 7.058692 7.053237 7.047822 7.042438 7.037079 7.031763 7.026508 7.021312 7.016169 7.011082 7.006053 7.001073 6.996135 6.991238 6.986386 6.981568 6.976771 6.972007 6.967283 6.962601 6.957956 6.953359 6.948816 6.944329 6.939897 6.935522 6.931205 6.926941 6.922725 6.918561 6.914453 6.910398 6.906391 6.902436 6.898537 6.894712 6.890981 6.887363 6.883879 6.880574 6.877495 6.874624 6.871949 6.869509 6.867340 6.865488 6.863997 6.863124
7.484527 7.483058 7.481325 7.479186 7.476855 7.473843 7.470712 7.467382 7.463897 7.460107 7.456191 7.452140 7.448032 7.443614 7.439163 7.434630 7.430034 7.425287 7.420478 7.415599 7.410675 7.405636 7.400565 7.395449 7.390293 7.385083 7.379835 7.374547 7.369222 7.363863 7.358474 7.353054 7.347607 7.342144 7.336654 7.331138 7.325593 7.320034 7.314446 7.308833 7.303195 7.297539 7.291857 7.286155 7.280426 7.274728 7.269011 7.263295 7.257576 7.251915 7.246254 7.240600 7.234936 7.229324 7.223701 7.218081 7.212461 7.206856 7.201261 7.195678 7.190112 7.184562 7.179032 7.173525 7.168045 7.162581 7.157154 7.151763 7.146421 7.141103 7.135839 7.130626 7.125473 7.120357 7.115308 7.110323 7.105434 7.100465 7.095578 7.090722 7.085914 7.080992 7.076118 7.071276 7.066514 7.061682 7.056944 7.052272 7.047672 7.043114 7.038621 7.034186 7.029823 7.025452 7.021141 7.016863 7.012628 7.008349 7.004110 6.999902 6.995748 6.991589 6.987493 6.983450 6.979464 6.975523 6.971641 6.967816 6.964056 6.960318 6.956642 6.953018 6.949447 6.945898 6.942400 6.938957 6.935553 6.932343 6.929203 6.926182 6.923278 6.920626 6.918110 6.915762 6.913524 6.911786 6.910205 6.908931 6.907861
7.468831 7.467876 7.466262 7.464280 7.461959 7.459327 7.456452 7.453406 7.450179 7.446765 7.443199 7.439515 7.435704 7.431757 7.427700 7.423555 7.419312 7.414953 7.410502 7.405980 7.401394 7.396748 7.392053 7.387318 7.382545 7.377732 7.372882 7.367998 7.363082 7.358136 7.353165 7.348173 7.343167 7.338151 7.333122 7.328077 7.323013 7.317928 7.312822 7.307695 7.302549 7.297385 7.292203 7.287002 7.281789 7.276571 7.271353 7.266142 7.260957 7.255811 7.250693 7.245588 7.240496 7.235413 7.230335 7.225260 7.220190 7.215130 7.210083 7.205051 7.200037 7.195044 7.190073 7.185125 7.180201 7.175302 7.170433 7.165605 7.160819 7.156079 7.151390 7.146758 7.142184 7.137666 7.133214 7.128835 7.124515 7.120236 7.115993 7.111773 7.107537 7.103245 7.098935 7.094649 7.090397 7.086190 7.082041 7.077964 7.073950 7.069991 7.066091 7.062249 7.058458 7.054709 7.050992 7.047299 7.043605 7.039888 7.036169 7.032468 7.028796 7.025160 7.021568 7.018027 7.014534 7.011090 7.007698 7.004362 7.001079 6.997848 6.994666 6.991529 6.988429 6.985354 6.982319 6.979336 6.976432 6.973638 6.970950 6.968369 6.965919 6.963623 6.961473 6.959467 6.957650 6.956072 6.954741 6.953662 6.953027
7.454088 7.453017 7.451567 7.449553 7.447374 7.444950 7.442366 7.439574 7.436647 7.433546 7.430325 7.426964 7.423512 7.419950 7.416323 7.412552 7.408702 7.404687 7.400599 7.396401 7.392171 7.387892 7.383578 7.379222 7.374836 7.370415 7.365963 7.361482 7.356972 7.352438 7.347877 7.343313 7.338736 7.334179 7.329609 7.325043 7.320453 7.315846 7.311219 7.306578 7.301921 7.297254 7.292568 7.287872 7.283158 7.278435 7.273688 7.268987 7.264296 7.259700 7.255118 7.250589 7.246046 7.241508 7.236967 7.232435 7.227907 7.223392 7.218890 7.214406 7.209942 7.205502 7.201090 7.196696 7.192333 7.187984 7.183673 7.179395 7.175170 7.170997 7.166885 7.162828 7.158838 7.154903 7.151048 7.147255 7.143550 7.139911 7.136384 7.132787 7.129219 7.125459 7.121727 7.117926 7.114235 7.110608 7.107067 7.103582 7.100172 7.096805 7.093502 7.090245 7.087053 7.083905 7.080822 7.077706 7.074606 7.071401 7.068207 7.064979 7.061808 7.058675 7.055593 7.052550 7.049558 7.046602 7.043700 7.040844 7.038050 7.035312 7.032643 7.029991 7.027385 7.024761 7.022186 7.019650 7.017202 7.014850 7.012592 7.010446 7.008406 7.006494 7.004694 7.003049 7.001539 7.000208 6.999023 6.998168 6.997560
7.439599 7.438537 7.436853 7.434992 7.432953 7.430737 7.428370 7.425879 7.423243 7.420445 7.417520 7.414503 7.411398 7.408207 7.404945 7.401626 7.398169 7.394494 7.390692 7.386855 7.382983 7.379073 7.375130 7.371159 7.367158 7.363129 7.359073 7.354993 7.350891 7.346769 7.342627 7.338466 7.334318 7.330217 7.326133 7.322031 7.317914 7.313785 7.309640 7.305479 7.301310 7.297140 7.292960 7.288762 7.284548 7.280323 7.276082 7.271819 7.267623 7.263576 7.259597 7.255604 7.251605 7.247605 7.243605 7.239606 7.235616 7.231641 7.227683 7.223742 7.219824 7.215930 7.212067 7.208239 7.204432 7.200628 7.196855 7.193131 7.189465 7.185854 7.182307 7.178832 7.175419 7.172060 7.168777 7.165586 7.162488 7.159475 7.156565 7.153770 7.150870 7.147645 7.144313 7.141094 7.137975 7.134937 7.131986 7.129125 7.126323 7.123552 7.120831 7.118178 7.115583 7.113036 7.110540 7.108099 7.105594 7.102901 7.100141 7.097431 7.094766 7.092137 7.089555 7.087023 7.084529 7.082060 7.079632 7.077264 7.074956 7.072705 7.070518 7.068405 7.066295 7.064121 7.061957 7.059877 7.057881 7.055969 7.054147 7.052416 7.050784 7.049252 7.047822 7.046498 7.045288 7.044201 7.043245 7.042427 7.041927
7.426174 7.423997 7.422318 7.420499 7.418710 7.416624 7.414499 7.412271 7.410001 7.407423 7.404807 7.402111 7.399369 7.396507 7.393624 7.390690 7.387855 7.384284 7.380819 7.377324 7.373833 7.370276 7.366709 7.363118 7.359510 7.355867 7.352206 7.348527 7.344828 7.341126 7.337399 7.333656 7.329851 7.326294 7.322674 7.319043 7.315388 7.311742 7.308078 7.304401 7.300700 7.297049 7.293369 7.289676 7.285950 7.282248 7.278495 7.274724 7.270800 7.267520 7.264090 7.260647 7.257164 7.253711 7.250242 7.246776 7.243309 7.239878 7.236456 7.233055 7.229679 7.226325 7.223010 7.219732 7.216524 7.213213 7.209983 7.206807 7.203701 7.200639 7.197658 7.194750 7.191948 7.189117 7.186410 7.183801 7.181336 7.178883 7.176630 7.174500 7.172850 7.169577 7.166784 7.164109 7.161633 7.159153 7.156815 7.154566 7.152445 7.150212 7.148092 7.146035 7.144067 7.142084 7.140203 7.138367 7.136767 7.134280 7.132025 7.129810 7.127685 7.125540 7.123464 7.121432 7.119476 7.117451 7.115505 7.113615 7.111803 7.110014 7.108322 7.106702 7.105267 7.103361 7.101645 7.100009 7.098477 7.096997 7.095608 7.094296 7.093060 7.091918 7.090846 7.089852 7.088913 7.088108 7.087330 7.086636 7.085795
7.409887 7.408959 7.407518 7.405978 7.404325 7.402549 7.400670 7.398707 7.396638 7.394437 7.392135 7.389767 7.387331 7.384827 7.382265 7.379656 7.376919 7.373966 7.370892 7.367787 7.364655 7.361491 7.358302 7.355094 7.351868 7.348621 7.345358 7.342083 7.338800 7.335510 7.332215 7.328913 7.325642 7.322435 7.319259 7.316079 7.312899 7.309719 7.306537 7.303350 7.300164 7.296987 7.293810 7.290622 7.287426 7.284224 7.281011 7.277782 7.274623 7.271616 7.268680 7.265732 7.262781 7.259832 7.256887 7.253945 7.251015 7.248104 7.245213 7.242342 7.239497 7.236680 7.233897 7.231152 7.228431 7.225718 7.223038 7.220413 7.217849 7.215347 7.212915 7.210561 7.208276 7.206051 7.203909 7.201870 7.199930 7.198087 7.196354 7.194748 7.193047 7.191030 7.188916 7.186924 7.185033 7.183228 7.181510 7.179880 7.178307 7.176758 7.175251 7.173803 7.172401 7.171031 7.169697 7.168400 7.167018 7.165427 7.163748 7.162098 7.160475 7.158873 7.157301 7.155766 7.154257 7.152762 7.151300 7.149889 7.148532 7.147227 7.145985 7.144812 7.143642 7.142411 7.141185 7.140035 7.138953 7.137938 7.136987 7.136099 7.135276 7.134514 7.133808 7.133150 7.132544 7.131988 7.131473 7.130990 7.130678
7.394526 7.393785 7.392819 7.391473 7.390065 7.388534 7.386922 7.385202 7.383406 7.381506 7.379532 7.377476 7.375360 7.373178 7.370951 7.368610 7.366197 7.363627 7.360992 7.358261 7.355508 7.352723 7.349915 7.347087 7.344244 7.341389 7.338523 7.335653 7.332778 7.329908 7.327036 7.324194 7.321368 7.318598 7.315845 7.313127 7.310410 7.307705 7.305002 7.302310 7.299620 7.296941 7.294260 7.291588 7.288908 7.286234 7.283544 7.280910 7.278293 7.275777 7.273281 7.270842 7.268395 7.265960 7.263528 7.261110 7.258703 7.256315 7.253947 7.251602 7.249285 7.246997 7.244745 7.242518 7.240328 7.238159 7.236035 7.233953 7.231935 7.229979 7.228096 7.226279 7.224544 7.222877 7.221306 7.219813 7.218428 7.217125 7.215952 7.214730 7.213559 7.212216 7.210927 7.209576 7.208349 7.207185 7.206116 7.205093 7.204144 7.203220 7.202353 7.201504 7.200701 7.199908 7.199154 7.198326 7.197478 7.196470 7.195438 7.194326 7.193244 7.192158 7.191099 7.190045 7.189025 7.188013 7.187043 7.186097 7.185207 7.184357 7.183577 7.182802 7.182080 7.181339 7.180651 7.179972 7.179365 7.178805 7.178302 7.177840 7.177430 7.177056 7.176720 7.176409 7.176122 7.175853 7.175586 7.175398 7.175248
7.379317 7.378839 7.378027 7.377029 7.375875 7.374599 7.373223 7.371774 7.370250 7.368649 7.366978 7.365242 7.363443 7.361578 7.359643 7.357636 7.355545 7.353355 7.351086 7.348758 7.346383 7.343976 7.341544 7.339094 7.336633 7.334168 7.331700 7.329228 7.326761 7.324310 7.321876 7.319460 7.317078 7.314745 7.312448 7.310172 7.307920 7.305690 7.303477 7.301271 7.299078 7.296900 7.294731 7.292561 7.290401 7.288258 7.286133 7.284022 7.281945 7.279918 7.277927 7.275959 7.274012 7.272082 7.270167 7.268263 7.266376 7.264506 7.262659 7.260838 7.259043 7.257278 7.255546 7.253848 7.252184 7.250553 7.248964 7.247429 7.245952 7.244535 7.243188 7.241917 7.240724 7.239608 7.238581 7.237651 7.236806 7.236032 7.235319 7.234662 7.234019 7.233350 7.232698 7.232102 7.231555 7.231047 7.230599 7.230232 7.229917 7.229628 7.229372 7.229158 7.228960 7.228747 7.228518 7.228271 7.227959 7.227536 7.227045 7.226527 7.225983 7.225413 7.224841 7.224292 7.223756 7.223222 7.222713 7.222250 7.221820 7.221416 7.221051 7.220738 7.220466 7.220215 7.220001 7.219837 7.219711 7.219614 7.219551 7.219532 7.219541 7.219562 7.219595 7.219643 7.219688 7.219717 7.219741 7.219772 7.219794
7.364587 7.364053 7.363424 7.362650 7.361808 7.360723 7.359600 7.358413 7.357169 7.355856 7.354488 7.353064 7.351590 7.350025 7.348409 7.346728 7.344990 7.343142 7.341241 7.339286 7.337291 7.335254 7.333192 7.331116 7.329025 7.326956 7.324882 7.322808 7.320727 7.318711 7.316696 7.314708 7.312739 7.310874 7.309031 7.307215 7.305404 7.303676 7.301945 7.300228 7.298517 7.296859 7.295201 7.293549 7.291875 7.290301 7.288708 7.287126 7.285548 7.284043 7.282550 7.281078 7.279610 7.278200 7.276795 7.275404 7.274028 7.272675 7.271345 7.270041 7.268771 7.267523 7.266313 7.265139 7.264009 7.262897 7.261840 7.260839 7.259908 7.259015 7.258204 7.257471 7.256825 7.256241 7.255756 7.255369 7.255116 7.254810 7.254630 7.254522 7.254506 7.254409 7.254410 7.254490 7.254722 7.254786 7.255002 7.255291 7.255664 7.255975 7.256347 7.256751 7.257232 7.257542 7.257900 7.258229 7.258552 7.258619 7.258677 7.258696 7.258749 7.258627 7.258559 7.258503 7.258483 7.258385 7.258337 7.258327 7.258410 7.258389 7.258471 7.258614 7.258827 7.259031 7.259302 7.259624 7.260031 7.260357 7.260756 7.261182 7.261640 7.262043 7.262456 7.262860 7.263270 7.263585 7.263889 7.264142 7.264364
7.349632 7.349361 7.348901 7.348338 7.347669 7.346887 7.346024 7.345107 7.344137 7.343118 7.342050 7.340933 7.339760 7.338524 7.337229 7.335877 7.334464 7.332982 7.331443 7.329855 7.328224 7.326554 7.324859 7.323151 7.321444 7.319751 7.318070 7.316398 7.314742 7.313109 7.311506 7.309937 7.308423 7.306983 7.305600 7.304254 7.302943 7.301664 7.300411 7.299181 7.297979 7.296819 7.295682 7.294559 7.293450 7.292363 7.291289 7.290223 7.289176 7.288158 7.287166 7.286191 7.285240 7.284315 7.283412 7.282527 7.281662 7.280819 7.280002 7.279214 7.278455 7.277730 7.277039 7.276385 7.275768 7.275187 7.274653 7.274177 7.273761 7.273412 7.273135 7.272937 7.272816 7.272772 7.272816 7.272955 7.273177 7.273467 7.273834 7.274289 7.274808 7.275368 7.275997 7.276723 7.277524 7.278376 7.279287 7.280266 7.281271 7.282261 7.283254 7.284268 7.285286 7.286287 7.287260 7.288193 7.289029 7.289713 7.290297 7.290831 7.291325 7.291787 7.292233 7.292681 7.293110 7.293500 7.293888 7.294310 7.294765 7.295258 7.295804 7.296416 7.297081 7.297781 7.298527 7.299327 7.300165 7.301028 7.301909 7.302804 7.303682 7.304516 7.305310 7.306073 7.306795 7.307467 7.308058 7.308541 7.308827
7.334950 7.334762 7.334483 7.334095 7.333637 7.333100 7.332502 7.331849 7.331153 7.330430 7.329662 7.328854 7.327991 7.327075 7.326105 7.325081 7.324004 7.322873 7.321692 7.320466 7.319195 7.317886 7.316538 7.315197 7.313847 7.312548 7.311251 7.309993 7.308734 7.307499 7.306280 7.305130 7.304032 7.303056 7.302132 7.301282 7.300451 7.299651 7.298856 7.298121 7.297404 7.296772 7.296153 7.295585 7.295005 7.294436 7.293866 7.293314 7.292771 7.292259 7.291763 7.291294 7.290843 7.290416 7.290011 7.289631 7.289273 7.288938 7.288630 7.288351 7.288107 7.287896 7.287726 7.287589 7.287493 7.287425 7.287408 7.287442 7.287548 7.287724 7.287988 7.288316 7.288730 7.289205 7.289777 7.290420 7.291170 7.292007 7.292949 7.293962 7.295070 7.296227 7.297487 7.298820 7.300274 7.301819 7.303507 7.305163 7.306891 7.308493 7.310138 7.311711 7.313357 7.314998 7.316660 7.318197 7.319659 7.320852 7.321966 7.322944 7.323931 7.324895 7.325907 7.326831 7.327774 7.328572 7.329408 7.330193 7.331083 7.332033 7.333070 7.334151 7.335299 7.336469 7.337697 7.338956 7.340277 7.341632 7.343050 7.344410 7.345771 7.346997 7.348197 7.349291 7.350370 7.351377 7.352335 7.353045 7.353576
7.320328 7.320256 7.320119 7.319922 7.319672 7.319375 7.319030 7.318635 7.318213 7.317786 7.317332 7.316829 7.316277 7.315679 7.315032 7.314336 7.313595 7.312815 7.311990 7.311121 7.310209 7.309260 7.308273 7.307250 7.306252 7.305342 7.304469 7.303590 7.302719 7.301873 7.301056 7.300272 7.299589 7.299076 7.298665 7.298289 7.297946 7.297635 7.297338 7.297043 7.296813 7.296714 7.296676 7.296624 7.296566 7.296508 7.296450 7.296395 7.296355 7.296342 7.296352 7.296379 7.296426 7.296496 7.296591 7.296713 7.296859 7.297028 7.297224 7.297454 7.297721 7.298022 7.298365 7.298752 7.299171 7.299610 7.300091 7.300638 7.301256 7.301950 7.302731 7.303607 7.304552 7.305538 7.306602 7.307775 7.309057 7.310443 7.311936 7.313541 7.315231 7.316981 7.318824 7.320795 7.322892 7.325116 7.327478 7.329989 7.332455 7.334680 7.336832 7.339081 7.341381 7.343686 7.345986 7.348276 7.350366 7.352070 7.353571 7.355049 7.356509 7.357954 7.359425 7.360963 7.362411 7.363608 7.364736 7.365973 7.367306 7.368723 7.370226 7.371817 7.373453 7.375098 7.376778 7.378525 7.380327 7.382175 7.384071 7.386016 7.387873 7.389506 7.391022 7.392526 7.393978 7.395339 7.396593 7.397728 7.398444
7.305779 7.305812 7.305814 7.305799 7.305755 7.305699 7.305605 7.305477 7.305279 7.305202 7.305050 7.304855 7.304610 7.304332 7.304008 7.303642 7.303227 7.302805 7.302334 7.301822 7.301261 7.300683 7.300045 7.299371 7.298573 7.298189 7.297696 7.297199 7.296678 7.296239 7.295800 7.295412 7.294975 7.295094 7.295165 7.295287 7.295411 7.295628 7.295821 7.296018 7.296090 7.296717 7.297211 7.297690 7.298129 7.298589 7.299032 7.299476 7.299909 7.300416 7.300922 7.301446 7.301987 7.302554 7.303146 7.303767 7.304423 7.305083 7.305784 7.306520 7.307298 7.308104 7.308959 7.309857 7.310830 7.311727 7.312708 7.313755 7.314888 7.316080 7.317378 7.318774 7.320331 7.321739 7.323316 7.325010 7.326839 7.328757 7.330812 7.332988 7.335335 7.337592 7.340033 7.342614 7.345383 7.348225 7.351301 7.354545 7.358258 7.360623 7.363429 7.366333 7.369400 7.372318 7.375326 7.378287 7.381458 7.383227 7.385199 7.387115 7.389101 7.390923 7.392876 7.394896 7.397296 7.398424 7.399956 7.401608 7.403443 7.405303 7.407297 7.409380 7.411600 7.413636 7.415795 7.418017 7.420331 7.422635 7.425044 7.427500 7.430199 7.431926 7.433859 7.435760 7.437678 7.439342 7.440971 7.442408 7.444029
7.291314 7.291399 7.291539 7.291704 7.291883 7.292063 7.292236 7.292390 7.292538 7.292692 7.292831 7.292933 7.292999 7.293033 7.293031 7.292996 7.292933 7.292845 7.292727 7.292574 7.292386 7.292165 7.291907 7.291613 7.291340 7.291144 7.290988 7.290831 7.290695 7.290604 7.290568 7.290598 7.290769 7.291155 7.291685 7.292282 7.292938 7.293644 7.294378 7.295118 7.295923 7.296852 7.297833 7.298796 7.299746 7.300689 7.301628 7.302566 7.303515 7.304490 7.305485 7.306497 7.307529 7.308586 7.309670 7.310784 7.311927 7.313098 7.314301 7.315543 7.316821 7.318136 7.319491 7.320889 7.322317 7.323759 7.325240 7.326788 7.328406 7.330104 7.331893 7.333784 7.335751 7.337771 7.339878 7.342109 7.344461 7.346935 7.349535 7.352264 7.355101 7.358019 7.361055 7.364245 7.367593 7.371097 7.374772 7.378631 7.382480 7.386127 7.389725 7.393422 7.397156 7.400862 7.404516 7.408089 7.411378 7.414179 7.416690 7.419110 7.421460 7.423761 7.426071 7.428448 7.430750 7.432837 7.434883 7.437060 7.439353 7.441745 7.444232 7.446808 7.449430 7.452052 7.454705 7.457419 7.460184 7.462992 7.465844 7.468742 7.471552 7.474138 7.476585 7.478981 7.481265 7.483378 7.485273 7.486903 7.487901
7.276764 7.276968 7.277240 7.277613 7.278008 7.278450 7.278885 7.279353 7.279792 7.280232 7.280647 7.281051 7.281423 7.281771 7.282090 7.282390 7.282663 7.282924 7.283155 7.283367 7.283544 7.283697 7.283807 7.283928 7.284026 7.284165 7.284283 7.284473 7.284666 7.284946 7.285271 7.285753 7.286345 7.287187 7.288139 7.289252 7.290413 7.291668 7.292929 7.294284 7.295633 7.297054 7.298475 7.299933 7.301368 7.302800 7.304225 7.305658 7.307096 7.308555 7.310030 7.311528 7.313046 7.314591 7.316164 7.317767 7.319403 7.321072 7.322783 7.324523 7.326307 7.328122 7.329981 7.331865 7.333788 7.335722 7.337708 7.339739 7.341846 7.344027 7.346307 7.348660 7.351120 7.353659 7.356317 7.359073 7.361964 7.364976 7.368126 7.371388 7.374785 7.378279 7.381923 7.385696 7.389646 7.393749 7.398059 7.402410 7.406903 7.411338 7.415920 7.420377 7.424939 7.429370 7.433784 7.437878 7.441787 7.445126 7.448272 7.451088 7.453868 7.456496 7.459199 7.461753 7.464418 7.466998 7.469677 7.472348 7.475166 7.478067 7.481077 7.484132 7.487258 7.490380 7.493556 7.496747 7.499995 7.503265 7.506597 7.509861 7.513130 7.516252 7.519364 7.522233 7.525024 7.527528 7.529841 7.531531 7.532771
7.262168 7.262468 7.262950 7.263498 7.264125 7.264843 7.265600 7.266341 7.267072 7.267798 7.268511 7.269202 7.269876 7.270538 7.271184 7.271808 7.272420 7.273030 7.273625 7.274193 7.274740 7.275271 7.275781 7.276264 7.276735 7.277207 7.277671 7.278116 7.278615 7.279243 7.279978 7.280802 7.281813 7.283111 7.284597 7.286173 7.287862 7.289687 7.291575 7.293458 7.295347 7.297258 7.299178 7.301093 7.303006 7.304921 7.306834 7.308746 7.310667 7.312605 7.314563 7.316539 7.318540 7.320568 7.322626 7.324716 7.326840 7.329002 7.331207 7.333460 7.335749 7.338064 7.340411 7.342800 7.345213 7.347634 7.350090 7.352611 7.355197 7.357848 7.360584 7.363427 7.366376 7.369429 7.372600 7.375902 7.379329 7.382878 7.386559 7.390379 7.394328 7.398390 7.402594 7.406970 7.411506 7.416192 7.421037 7.426046 7.431182 7.436400 7.441739 7.447228 7.452678 7.457895 7.462935 7.467852 7.472383 7.476263 7.479749 7.483100 7.486257 7.489158 7.491992 7.494946 7.497981 7.501059 7.504216 7.507487 7.510850 7.514282 7.517791 7.521388 7.525025 7.528658 7.532313 7.536016 7.539745 7.543478 7.547220 7.550979 7.554711 7.558374 7.561985 7.565561 7.568917 7.571867 7.574426 7.576611 7.577942
7.247272 7.247909 7.248594 7.249393 7.250151 7.251285 7.252331 7.253361 7.254358 7.255391 7.256397 7.257387 7.258342 7.259336 7.260299 7.261250 7.262180 7.263165 7.264122 7.265062 7.265952 7.266894 7.267780 7.268636 7.269442 7.270292 7.271079 7.271828 7.272435 7.273554 7.274597 7.275766 7.276994 7.278949 7.280965 7.283108 7.285175 7.287770 7.290229 7.292660 7.295039 7.297479 7.299886 7.302280 7.304643 7.307057 7.309447 7.311834 7.314219 7.316642 7.319076 7.321530 7.324005 7.326518 7.329056 7.331629 7.334241 7.336886 7.339584 7.342336 7.345167 7.347946 7.350799 7.353686 7.356630 7.359485 7.362408 7.365389 7.368483 7.371549 7.374754 7.378075 7.381527 7.385069 7.388753 7.392578 7.396573 7.400625 7.404851 7.409220 7.413757 7.418331 7.423092 7.428032 7.433218 7.438403 7.443848 7.449490 7.455375 7.461247 7.467404 7.473779 7.480650 7.486265 7.492208 7.497938 7.503630 7.507518 7.511361 7.514977 7.518899 7.521551 7.524666 7.527961 7.531499 7.534974 7.538643 7.542450 7.546467 7.550354 7.554419 7.558561 7.562799 7.566873 7.571021 7.575204 7.579494 7.583611 7.587826 7.592066 7.596362 7.600468 7.604642 7.608810 7.613215 7.616270 7.619385 7.622030 7.624445
7.232733 7.233301 7.234234 7.235324 7.236531 7.237812 7.239122 7.240416 7.241709 7.243011 7.244315 7.245607 7.246890 7.248167 7.249441 7.250713 7.252002 7.253324 7.254657 7.255980 7.257286 7.258573 7.259832 7.261056 7.262255 7.263439 7.264588 7.265681 7.266778 7.267943 7.269225 7.270671 7.272449 7.274728 7.277340 7.280118 7.283018 7.285991 7.288977 7.291914 7.294824 7.297731 7.300626 7.303501 7.306363 7.309220 7.312073 7.314923 7.317782 7.320667 7.323574 7.326503 7.329457 7.332440 7.335454 7.338502 7.341588 7.344716 7.347896 7.351134 7.354423 7.357755 7.361121 7.364517 7.367910 7.371267 7.374634 7.378053 7.381539 7.385112 7.388790 7.392591 7.396517 7.400565 7.404749 7.409084 7.413568 7.418198 7.422972 7.427894 7.432939 7.438085 7.443373 7.448847 7.454506 7.460354 7.466408 7.472689 7.479166 7.485810 7.492680 7.499831 7.507095 7.514305 7.521336 7.528062 7.534037 7.538818 7.542842 7.546546 7.550051 7.553478 7.556986 7.560734 7.564658 7.568694 7.572868 7.577207 7.581677 7.586250 7.590909 7.595638 7.600364 7.605014 7.609640 7.614288 7.618956 7.623643 7.628355 7.633097 7.637825 7.642494 7.647147 7.651825 7.656367 7.660613 7.664429 7.667681 7.669662
7.217624 7.218581 7.219715 7.221319 7.222836 7.224399 7.225929 7.227498 7.229048 7.230648 7.232243 7.233856 7.235445 7.237029 7.238583 7.240186 7.241792 7.243499 7.245203 7.246946 7.248640 7.250308 7.251921 7.253525 7.255082 7.256656 7.258155 7.259653 7.261053 7.262456 7.263688 7.265463 7.267405 7.270394 7.273550 7.277251 7.280785 7.284326 7.287775 7.291229 7.294613 7.298018 7.301388 7.304757 7.308088 7.311406 7.314701 7.318011 7.321323 7.324678 7.328050 7.331457 7.334881 7.338333 7.341816 7.345334 7.348893 7.352490 7.356148 7.359856 7.363637 7.367476 7.371416 7.375302 7.379224 7.382991 7.386806 7.390591 7.394513 7.398538 7.402699 7.406971 7.411386 7.415914 7.420595 7.425418 7.430418 7.435580 7.440948 7.446403 7.452020 7.457651 7.463470 7.469407 7.475607 7.482029 7.488742 7.495631 7.502790 7.510059 7.517672 7.525434 7.533594 7.541888 7.550770 7.558355 7.565639 7.570295 7.574642 7.577679 7.581283 7.584991 7.589064 7.593238 7.597706 7.602214 7.606930 7.611747 7.616787 7.621961 7.627331 7.632638 7.638001 7.643104 7.648235 7.653257 7.658399 7.663577 7.668852 7.674082 7.679345 7.684451 7.689626 7.694672 7.699816 7.704796 7.710035 7.713745 7.716858
7.202397 7.203682 7.205575 7.207401 7.209201 7.211020 7.212827 7.214600 7.216401 7.218292 7.220221 7.222129 7.224026 7.225920 7.227800 7.229654 7.231581 7.233677 7.235839 7.237960 7.240045 7.242098 7.244101 7.246039 7.247968 7.249947 7.251892 7.253722 7.255461 7.257138 7.258699 7.260090 7.262194 7.265893 7.270306 7.274551 7.278682 7.282752 7.286736 7.290611 7.294454 7.298340 7.302223 7.306052 7.309843 7.313614 7.317365 7.321098 7.324854 7.328673 7.332530 7.336396 7.340281 7.344193 7.348138 7.352124 7.356148 7.360206 7.364317 7.368504 7.372764 7.377097 7.381520 7.386051 7.390497 7.394666 7.398763 7.402993 7.407350 7.411828 7.416444 7.421211 7.426107 7.431108 7.436252 7.441575 7.447078 7.452761 7.458644 7.464748 7.470925 7.477031 7.483234 7.489702 7.496431 7.503414 7.510691 7.518303 7.526108 7.533963 7.542071 7.550641 7.559602 7.568882 7.578619 7.588949 7.597546 7.602080 7.604873 7.608244 7.612050 7.616142 7.620587 7.625449 7.630502 7.635522 7.640659 7.646064 7.651686 7.657473 7.663436 7.669581 7.675596 7.681163 7.686570 7.692106 7.697732 7.703413 7.709172 7.715032 7.720814 7.726340 7.731809 7.737420 7.743085 7.748718 7.754449 7.760405 7.764452
7.185886 7.189289 7.191503 7.193684 7.195549 7.197734 7.199761 7.201774 7.203660 7.205992 7.208218 7.210438 7.212610 7.214857 7.217042 7.219213 7.221200 7.223954 7.226515 7.229044 7.231483 7.233964 7.236348 7.238672 7.240807 7.243392 7.245745 7.247986 7.249934 7.252159 7.253880 7.255433 7.255388 7.262107 7.267230 7.272186 7.276640 7.281367 7.285807 7.290137 7.294249 7.298766 7.303112 7.307404 7.311621 7.315859 7.320046 7.324217 7.328322 7.332685 7.336998 7.341322 7.345654 7.350020 7.354419 7.358860 7.363368 7.367846 7.372414 7.377056 7.381817 7.386578 7.391517 7.396564 7.402045 7.406091 7.410586 7.415215 7.420065 7.424954 7.430037 7.435273 7.440722 7.446112 7.451729 7.457528 7.463557 7.469700 7.476122 7.482768 7.489903 7.496059 7.502732 7.509676 7.516999 7.524443 7.532307 7.540512 7.549376 7.557310 7.566012 7.575182 7.585288 7.594838 7.605875 7.617512 7.633512 7.631842 7.634526 7.637794 7.642527 7.646661 7.651695 7.657146 7.663332 7.668418 7.674120 7.680086 7.686419 7.692714 7.699356 7.706172 7.713638 7.718898 7.724776 7.730767 7.737012 7.743095 7.749391 7.755766 7.762540 7.767965 7.773848 7.779839 7.786387 7.791984 7.798634 7.805455 7.816093
7.174687 7.176085 7.178183 7.180280 7.182410 7.184606 7.186836 7.189073 7.191373 7.193799 7.196291 7.198794 7.201313 7.203855 7.206406 7.208954 7.211595 7.214423 7.217333 7.220220 7.223084 7.225930 7.228740 7.231495 7.234253 7.237068 7.239859 7.242542 7.245141 7.247683 7.250111 7.252372 7.255347 7.259918 7.265204 7.270322 7.275327 7.280271 7.285130 7.289881 7.294600 7.299363 7.304124 7.308831 7.313502 7.318153 7.322786 7.327402 7.332041 7.336745 7.341486 7.346240 7.351013 7.355814 7.360650 7.365528 7.370444 7.375397 7.380405 7.385489 7.390648 7.395882 7.401206 7.406641 7.411993 7.417068 7.422076 7.427218 7.432490 7.437888 7.443427 7.449121 7.454949 7.460889 7.466977 7.473249 7.479711 7.486359 7.493216 7.500299 7.507467 7.514572 7.521783 7.529270 7.537029 7.545053 7.553383 7.562060 7.570941 7.579886 7.589099 7.598787 7.608879 7.619306 7.630206 7.641714 7.651505 7.657251 7.661271 7.665881 7.670932 7.676280 7.681985 7.688108 7.694422 7.700700 7.707090 7.713740 7.720598 7.727609 7.734779 7.742116 7.749301 7.756016 7.762547 7.769175 7.775861 7.782564 7.789304 7.796102 7.802772 7.809134 7.815380 7.821702 7.828006 7.834196 7.840385 7.846690 7.850931
7.162089 7.163321 7.164863 7.167029 7.169204 7.171532 7.173906 7.176411 7.178960 7.181633 7.184355 7.187161 7.189994 7.192878 7.195774 7.198768 7.201800 7.204974 7.208176 7.211451 7.214704 7.217961 7.221186 7.224429 7.227641 7.230893 7.234083 7.237290 7.240409 7.243542 7.246508 7.250027 7.253711 7.258444 7.263345 7.268792 7.274074 7.279363 7.284563 7.289767 7.294904 7.300063 7.305188 7.310315 7.315405 7.320483 7.325542 7.330617 7.335696 7.340820 7.345963 7.351145 7.356344 7.361574 7.366839 7.372140 7.377485 7.382871 7.388321 7.393825 7.399404 7.405044 7.410788 7.416481 7.422215 7.427795 7.433430 7.439039 7.444791 7.450653 7.456660 7.462788 7.469067 7.475469 7.482038 7.488761 7.495676 7.502768 7.510080 7.517495 7.525092 7.532721 7.540557 7.548532 7.556792 7.565294 7.574112 7.583131 7.592444 7.601892 7.611713 7.621710 7.632135 7.642721 7.653928 7.663869 7.673542 7.680620 7.687427 7.692938 7.699043 7.705259 7.711856 7.718552 7.725548 7.732570 7.739799 7.747106 7.754623 7.762241 7.770035 7.777722 7.785434 7.792830 7.800218 7.807423 7.814692 7.821913 7.829161 7.836262 7.843312 7.850089 7.856835 7.863301 7.869737 7.875829 7.882023 7.886426 7.890009
7.149284 7.150246 7.151848 7.153769 7.155971 7.158411 7.161013 7.163703 7.166500 7.169416 7.172426 7.175504 7.178655 7.181888 7.185188 7.188544 7.191974 7.195499 7.199087 7.202704 7.206350 7.210027 7.213714 7.217392 7.221075 7.224780 7.228475 7.232127 7.235803 7.239567 7.243459 7.247517 7.251908 7.256801 7.262030 7.267427 7.272949 7.278545 7.284155 7.289720 7.295259 7.300797 7.306324 7.311834 7.317336 7.322833 7.328330 7.333827 7.339339 7.344876 7.350439 7.356029 7.361648 7.367298 7.372983 7.378706 7.384472 7.390284 7.396150 7.402081 7.408068 7.414102 7.420174 7.426282 7.432392 7.438468 7.444559 7.450714 7.456946 7.463273 7.469716 7.476300 7.483023 7.489882 7.496896 7.504082 7.511436 7.518957 7.526648 7.534511 7.542524 7.550664 7.558976 7.567506 7.576255 7.585221 7.594431 7.603905 7.613613 7.623525 7.633703 7.644206 7.654868 7.665517 7.676032 7.686291 7.695849 7.704260 7.711964 7.719400 7.726666 7.733858 7.741144 7.748694 7.756420 7.764232 7.772166 7.780259 7.788455 7.796699 7.804984 7.813302 7.821559 7.829657 7.837654 7.845606 7.853478 7.861237 7.868896 7.876474 7.883894 7.891077 7.898073 7.904930 7.911432 7.917359 7.922585 7.926980 7.929633
7.135518 7.136912 7.138514 7.140457 7.142498 7.145256 7.148031 7.150931 7.153917 7.157135 7.160430 7.163815 7.167235 7.170880 7.174547 7.178279 7.182052 7.185997 7.189969 7.193978 7.197969 7.202127 7.206249 7.210380 7.214488 7.218721 7.222910 7.227082 7.231107 7.235722 7.240245 7.244896 7.249602 7.255043 7.260546 7.266182 7.271749 7.277836 7.283794 7.289729 7.295616 7.301559 7.307476 7.313385 7.319270 7.325201 7.331116 7.337034 7.342956 7.348913 7.354888 7.360890 7.366920 7.372985 7.379086 7.385226 7.391414 7.397633 7.403915 7.410256 7.416687 7.423064 7.429526 7.436028 7.442599 7.449071 7.455626 7.462250 7.469009 7.475739 7.482631 7.489659 7.496843 7.504127 7.511580 7.519202 7.527031 7.534928 7.543040 7.551332 7.559829 7.568388 7.577178 7.586189 7.595499 7.604834 7.614485 7.624382 7.634578 7.644801 7.655365 7.666206 7.677611 7.687802 7.698391 7.708831 7.719304 7.728019 7.736768 7.745360 7.754364 7.761990 7.770166 7.778547 7.787204 7.795687 7.804376 7.813191 7.822239 7.830977 7.839898 7.848845 7.857841 7.866485 7.875135 7.883728 7.892379 7.900534 7.908713 7.916759 7.924712 7.932136 7.939448 7.946533 7.953701 7.958913 7.963977 7.968188 7.971912
7.122393 7.123374 7.125027 7.127047 7.129406 7.132082 7.134998 7.138075 7.141331 7.144778 7.148378 7.152094 7.155920 7.159853 7.163875 7.167973 7.172164 7.176466 7.180846 7.185272 7.189744 7.194261 7.198813 7.203389 7.208013 7.212707 7.217440 7.222183 7.227002 7.231967 7.237048 7.242217 7.247574 7.253223 7.259066 7.265005 7.271061 7.277257 7.283521 7.289784 7.296055 7.302349 7.308654 7.314960 7.321270 7.327586 7.333909 7.340235 7.346573 7.352931 7.359314 7.365722 7.372161 7.378635 7.385147 7.391698 7.398290 7.404922 7.411604 7.418342 7.425125 7.431942 7.438801 7.445710 7.452647 7.459593 7.466583 7.473652 7.480803 7.488041 7.495386 7.502863 7.510469 7.518200 7.526076 7.534118 7.542322 7.550687 7.559224 7.567946 7.576837 7.585881 7.595115 7.604574 7.614249 7.624131 7.634232 7.644560 7.655075 7.665733 7.676576 7.687643 7.698743 7.709688 7.720533 7.731337 7.741829 7.751745 7.761349 7.770908 7.780342 7.789573 7.798777 7.808126 7.817540 7.826935 7.836365 7.845888 7.855468 7.865072 7.874696 7.884336 7.893903 7.903303 7.912582 7.921789 7.930879 7.939808 7.948565 7.957137 7.965419 7.973307 7.980838 7.988052 7.994721 8.000616 8.005688 8.009884 8.012390
7.108288 7.109498 7.111175 7.113472 7.115997 7.118816 7.121802 7.125098 7.128551 7.132313 7.136212 7.140322 7.144498 7.148778 7.153127 7.157603 7.162166 7.166886 7.171678 7.176564 7.181472 7.186419 7.191353 7.196399 7.201468 7.206709 7.211961 7.217362 7.222753 7.228237 7.233763 7.239456 7.245255 7.251315 7.257490 7.263834 7.270233 7.276733 7.283251 7.289862 7.296473 7.303148 7.309832 7.316551 7.323261 7.329978 7.336697 7.343428 7.350170 7.356930 7.363713 7.370523 7.377367 7.384246 7.391169 7.398124 7.405124 7.412153 7.419236 7.426353 7.433528 7.440748 7.448027 7.455332 7.462687 7.470040 7.477460 7.484934 7.492514 7.500192 7.508010 7.515917 7.523968 7.532108 7.540408 7.548835 7.557452 7.566240 7.575223 7.584364 7.593692 7.603155 7.612827 7.622685 7.632793 7.643126 7.653750 7.664478 7.675429 7.686378 7.697561 7.708694 7.720031 7.731332 7.742719 7.753869 7.764931 7.775496 7.785976 7.796207 7.806521 7.816775 7.827239 7.837492 7.847897 7.858024 7.868261 7.878370 7.888674 7.899029 7.909477 7.919824 7.930132 7.940161 7.950102 7.959846 7.969541 7.979092 7.988600 7.997677 8.006521 8.014677 8.022545 8.029694 8.036513 8.042649 8.048273 8.052385 8.055375
7.093871 7.095155 7.097247 7.099668 7.102390 7.105385 7.108594 7.111964 7.115626 7.119713 7.124056 7.128486 7.133008 7.137633 7.142349 7.147147 7.152089 7.157236 7.162511 7.167833 7.173196 7.178592 7.183996 7.189386 7.194906 7.200703 7.206633 7.212552 7.218487 7.224465 7.230496 7.236588 7.242825 7.249293 7.255913 7.262607 7.269369 7.276192 7.283055 7.289939 7.296887 7.303943 7.311049 7.318153 7.325257 7.332366 7.339483 7.346610 7.353750 7.360906 7.368084 7.375292 7.382534 7.389812 7.397135 7.404506 7.411910 7.419331 7.426787 7.434302 7.441871 7.449492 7.457168 7.464905 7.472668 7.480423 7.488220 7.496109 7.504101 7.512205 7.520442 7.528829 7.537316 7.545857 7.554517 7.563362 7.572391 7.581599 7.590998 7.600594 7.610348 7.620218 7.630264 7.640546 7.651066 7.661830 7.672859 7.684173 7.695555 7.706789 7.718057 7.729540 7.741172 7.752889 7.764668 7.776489 7.788120 7.799330 7.810353 7.821423 7.832555 7.843768 7.855129 7.866706 7.878122 7.889003 7.899724 7.910657 7.921736 7.932892 7.944105 7.955353 7.966425 7.977109 7.987564 7.997954 8.008247 8.018417 8.028479 8.038450 8.047885 8.056337 8.064150 8.071663 8.078727 8.085195 8.090984 8.096012 8.099110
7.078171 7.080672 7.082987 7.085672 7.088514 7.091817 7.095227 7.098813 7.102277 7.107124 7.111814 7.116601 7.121417 7.126429 7.131491 7.136654 7.141804 7.147565 7.153297 7.159094 7.164886 7.170801 7.176656 7.182499 7.188067 7.194831 7.201316 7.207784 7.214179 7.220685 7.227169 7.233696 7.240165 7.247240 7.254264 7.261347 7.268443 7.275643 7.282840 7.290058 7.297194 7.304777 7.312272 7.319767 7.327248 7.334753 7.342259 7.349777 7.357314 7.364855 7.372425 7.380024 7.387662 7.395332 7.403053 7.410824 7.418680 7.426436 7.434282 7.442186 7.450163 7.458168 7.466249 7.474391 7.482658 7.490701 7.498887 7.507165 7.515576 7.524065 7.532723 7.541533 7.550611 7.559384 7.568440 7.577684 7.587147 7.596751 7.606575 7.616593 7.626887 7.637029 7.647467 7.658134 7.669096 7.680209 7.691682 7.703436 7.715828 7.726775 7.738338 7.750129 7.762229 7.774284 7.786577 7.798955 7.811728 7.823005 7.834684 7.846459 7.858508 7.870461 7.882802 7.895385 7.908882 7.919479 7.930973 7.942677 7.954719 7.966618 7.978699 7.990780 8.003107 8.014003 8.025092 8.036073 8.047080 8.057726 8.068449 8.079062 8.090230 8.097914 8.106056 8.113873 8.121536 8.128143 8.134459 8.139937 8.145943
7.064939 7.066378 7.068744 7.071523 7.074671 7.078140 7.081866 7.085785 7.090018 7.094689 7.099635 7.104690 7.109866 7.115176 7.120613 7.126172 7.131920 7.137925 7.144099 7.150358 7.156687 7.163072 7.169482 7.175887 7.182426 7.189238 7.196175 7.203087 7.209998 7.216928 7.223883 7.230866 7.237958 7.245236 7.252634 7.260075 7.267563 7.275097 7.282667 7.290256 7.297916 7.305698 7.313545 7.321398 7.329261 7.337137 7.345025 7.352927 7.360844 7.368777 7.376732 7.384718 7.392738 7.400798 7.408901 7.417055 7.425244 7.433450 7.441695 7.449998 7.458356 7.466765 7.475229 7.483752 7.492300 7.500837 7.509417 7.518088 7.526865 7.535758 7.544787 7.553973 7.563269 7.572628 7.582112 7.591786 7.601645 7.611682 7.621904 7.632318 7.642879 7.653544 7.664374 7.675428 7.686712 7.698231 7.710008 7.722062 7.734180 7.746146 7.758156 7.770409 7.782854 7.795443 7.808169 7.821027 7.833801 7.846277 7.858676 7.871221 7.883915 7.896764 7.909825 7.923152 7.936358 7.949057 7.961606 7.974362 7.987241 8.000159 8.013079 8.025962 8.038580 8.050705 8.062510 8.074165 8.085653 8.096956 8.108103 8.119120 8.129574 8.139030 8.147811 8.156240 8.164152 8.171382 8.177814 8.183337 8.186714
7.050267 7.051857 7.054085 7.057128 7.060506 7.064292 7.068312 7.072723 7.077321 7.082260 7.087348 7.092718 7.098183 7.103839 7.109613 7.115621 7.121780 7.128233 7.134819 7.141596 7.148431 7.155376 7.162315 7.169411 7.176511 7.183777 7.191057 7.198440 7.205796 7.213179 7.220569 7.228038 7.235561 7.243227 7.250957 7.258779 7.266635 7.274541 7.282473 7.290477 7.298517 7.306647 7.314812 7.323031 7.331263 7.339511 7.347777 7.356058 7.364358 7.372670 7.381010 7.389374 7.397776 7.406214 7.414701 7.423220 7.431789 7.440391 7.449049 7.457743 7.466497 7.475294 7.484150 7.493028 7.501953 7.510871 7.519853 7.528890 7.538037 7.547291 7.556694 7.566199 7.575865 7.585638 7.595595 7.605677 7.615962 7.626404 7.637043 7.647816 7.658767 7.669814 7.681057 7.692454 7.704093 7.715930 7.728053 7.740257 7.752685 7.765107 7.777733 7.790414 7.803335 7.816391 7.829629 7.842865 7.856173 7.869306 7.882524 7.895743 7.909167 7.922731 7.936580 7.950372 7.964342 7.978090 7.992031 8.005771 8.019724 8.033588 8.047496 8.061099 8.074547 8.087418 8.100077 8.112310 8.124413 8.136189 8.147886 8.159014 8.169915 8.180085 8.189917 8.198909 8.207452 8.215118 8.222081 8.227193 8.230865
7.035170 7.036697 7.039268 7.042398 7.046056 7.050209 7.054725 7.059472 7.064456 7.069684 7.075100 7.080650 7.086391 7.092384 7.098577 7.104917 7.111497 7.118409 7.125540 7.132777 7.140150 7.147686 7.155306 7.162931 7.170588 7.178303 7.186054 7.193818 7.201604 7.209423 7.217274 7.225158 7.233107 7.241153 7.249273 7.257448 7.265677 7.273961 7.282291 7.290663 7.299084 7.307562 7.316089 7.324654 7.333250 7.341869 7.350509 7.359171 7.367849 7.376537 7.385247 7.393992 7.402770 7.411580 7.420431 7.429332 7.438281 7.447274 7.456321 7.465426 7.474579 7.483763 7.492988 7.502258 7.511551 7.520840 7.530169 7.539580 7.549080 7.558675 7.568394 7.578265 7.588289 7.598463 7.608813 7.619363 7.630079 7.640929 7.651938 7.663135 7.674466 7.685884 7.697453 7.709238 7.721210 7.733342 7.745670 7.758229 7.770975 7.783863 7.796922 7.810182 7.823606 7.837156 7.850831 7.864630 7.878465 7.892251 7.906084 7.920062 7.934175 7.948416 7.962818 7.977415 7.992140 8.006928 8.021848 8.036967 8.052077 8.066971 8.081718 8.096392 8.110699 8.124346 8.137565 8.150586 8.163277 8.175501 8.187404 8.199131 8.210539 8.221481 8.231972 8.242025 8.251327 8.259559 8.266640 8.272488 8.275975
7.018544 7.021023 7.023892 7.027388 7.031112 7.035972 7.040906 7.046058 7.051348 7.056989 7.062719 7.068563 7.074351 7.080886 7.087392 7.094087 7.100883 7.108479 7.116156 7.123978 7.131703 7.140082 7.148294 7.156478 7.164604 7.172839 7.181038 7.189232 7.197378 7.205678 7.213946 7.222242 7.230555 7.239030 7.247536 7.256092 7.264666 7.273360 7.282069 7.290814 7.299591 7.308441 7.317326 7.326252 7.335215 7.344202 7.353220 7.362261 7.371330 7.380372 7.389451 7.398562 7.407732 7.416888 7.426111 7.435388 7.444728 7.454095 7.463532 7.473032 7.482626 7.492160 7.501779 7.511434 7.521152 7.530735 7.540402 7.550142 7.560026 7.569891 7.579942 7.590156 7.600560 7.611084 7.621832 7.632797 7.644061 7.655211 7.666648 7.678254 7.690080 7.701738 7.713633 7.725726 7.738168 7.750424 7.763055 7.775946 7.789124 7.802382 7.815912 7.829673 7.843750 7.857692 7.871909 7.886262 7.900807 7.915049 7.929499 7.944109 7.959056 7.973768 7.988861 8.004206 8.019876 8.035483 8.051464 8.067736 8.084648 8.100101 8.116014 8.131763 8.147511 8.161411 8.175248 8.188793 8.202607 8.214690 8.227097 8.239390 8.251629 8.263141 8.274464 8.285394 8.296271 8.304564 8.312431 8.318920 8.324574
7.003026 7.004958 7.008206 7.012150 7.016674 7.021660 7.026981 7.032506 7.038245 7.044205 7.050321 7.056530 7.062880 7.069420 7.076172 7.083155 7.090533 7.098471 7.106782 7.115277 7.123913 7.132644 7.141393 7.150083 7.158746 7.167410 7.176064 7.184694 7.193320 7.201964 7.210627 7.219310 7.228049 7.236877 7.245774 7.254717 7.263707 7.272745 7.281823 7.290933 7.300084 7.309282 7.318526 7.327812 7.337139 7.346505 7.355902 7.365320 7.374748 7.384171 7.393606 7.403074 7.412580 7.422128 7.431726 7.441381 7.451090 7.460847 7.470663 7.480546 7.490487 7.500473 7.510495 7.520543 7.530573 7.540545 7.550520 7.560558 7.570684 7.580922 7.591302 7.601854 7.612581 7.623482 7.634589 7.645931 7.657479 7.669209 7.681104 7.693153 7.705268 7.717356 7.729520 7.741864 7.754398 7.767132 7.780109 7.793375 7.806893 7.820631 7.834609 7.848849 7.863312 7.877951 7.892752 7.907701 7.922697 7.937638 7.952641 7.967820 7.983183 7.998741 8.014550 8.030668 8.047054 8.063663 8.080573 8.097862 8.115329 8.132774 8.150081 8.167131 8.183445 8.198539 8.212830 8.226730 8.240291 8.253557 8.266655 8.279705 8.292541 8.304991 8.317076 8.328815 8.339891 8.349997 8.358854 8.366190 8.370574
6.985574 6.988302 6.991826 6.996722 7.001772 7.007217 7.012852 7.018810 7.024920 7.031327 7.037830 7.044521 7.051218 7.058025 7.064719 7.072067 7.079624 7.088330 7.097221 7.106718 7.116027 7.125343 7.134552 7.143760 7.152884 7.162023 7.171113 7.180203 7.189246 7.198281 7.207286 7.216359 7.225454 7.234690 7.243966 7.253329 7.262702 7.272111 7.281546 7.291020 7.300529 7.310084 7.319685 7.329331 7.339025 7.348764 7.358561 7.368352 7.378170 7.387934 7.397730 7.407523 7.417387 7.427301 7.437284 7.447312 7.457403 7.467529 7.477725 7.487972 7.498302 7.508690 7.519187 7.529606 7.540052 7.550290 7.560575 7.570820 7.581230 7.591769 7.602489 7.613358 7.624425 7.635650 7.647112 7.658774 7.670717 7.682889 7.695408 7.707858 7.720480 7.732761 7.745227 7.757638 7.770431 7.783484 7.796875 7.810506 7.824447 7.838597 7.853042 7.867716 7.882696 7.897908 7.913448 7.928962 7.944639 7.960032 7.975607 7.991175 8.007115 8.023328 8.039930 8.056779 8.074007 8.091426 8.109303 8.127412 8.146032 8.164865 8.184403 8.202625 8.220598 8.235858 8.250800 8.264285 8.278267 8.292171 8.306261 8.320073 8.333835 8.347038 8.360037 8.372411 8.384485 8.395760 8.406797 8.414747 8.420959
6.967590 6.970850 6.975868 6.981139 6.986699 6.992587 6.998706 7.004961 7.011471 7.018353 7.025426 7.032508 7.039610 7.046743 7.053824 7.060771 7.068517 7.078004 7.088268 7.098345 7.108288 7.118149 7.127903 7.137523 7.147090 7.156686 7.166259 7.175760 7.185210 7.194630 7.204021 7.213384 7.222828 7.232464 7.242197 7.251931 7.261679 7.271451 7.281249 7.291073 7.300934 7.310843 7.320799 7.330804 7.340858 7.350965 7.361128 7.371355 7.381561 7.391663 7.401748 7.411903 7.422124 7.432406 7.442756 7.453179 7.463650 7.474141 7.484685 7.495315 7.506022 7.516800 7.527667 7.538643 7.549495 7.559989 7.570378 7.580917 7.591603 7.602435 7.613445 7.624662 7.636052 7.647579 7.659316 7.671338 7.683642 7.696223 7.709126 7.722392 7.735514 7.747979 7.760311 7.773030 7.786105 7.799501 7.813238 7.827329 7.841699 7.856268 7.871104 7.886277 7.901764 7.917537 7.933627 7.950060 7.966409 7.982242 7.998009 8.014155 8.030666 8.047524 8.064787 8.082510 8.100542 8.118730 8.137293 8.156448 8.176126 8.196249 8.216952 8.238369 8.258037 8.273496 8.287135 8.301343 8.315902 8.330599 8.345453 8.360492 8.375256 8.389288 8.402876 8.416307 8.429347 8.441761 8.453632 8.465046 8.472504
6.946349 6.954000 6.959654 6.965630 6.971299 6.977904 6.984425 6.991112 6.997650 7.005438 7.013013 7.020608 7.027972 7.035765 7.043067 7.050226 7.055671 7.068457 7.079501 7.090346 7.100630 7.111176 7.121389 7.131458 7.141268 7.151477 7.161478 7.171397 7.181205 7.191043 7.200786 7.210493 7.220010 7.230304 7.240427 7.250546 7.260632 7.270778 7.280924 7.291097 7.301291 7.311559 7.321865 7.332221 7.342641 7.353087 7.363630 7.374240 7.385058 7.395269 7.405694 7.416192 7.426801 7.437429 7.448156 7.458954 7.469874 7.480652 7.491560 7.502547 7.513671 7.524758 7.536038 7.547419 7.559296 7.569406 7.580032 7.590800 7.601829 7.612886 7.624194 7.635708 7.647541 7.659205 7.671237 7.683556 7.696288 7.709103 7.722478 7.736226 7.751204 7.762485 7.775007 7.787930 7.801456 7.815106 7.829245 7.843751 7.858750 7.873549 7.888831 7.904462 7.920543 7.936733 7.953461 7.970545 7.988694 8.003818 8.020029 8.036638 8.053869 8.071222 8.089186 8.107634 8.126920 8.145329 8.164688 8.184672 8.205770 8.226439 8.248791 8.271894 8.299682 8.308988 8.322903 8.337411 8.353401 8.368528 8.384464 8.400566 8.417408 8.431356 8.445871 8.460165 8.474835 8.487443 8.500923 8.513801 8.531506
6.935644 6.939145 6.944592 6.950426 6.956660 6.963308 6.970262 6.977413 6.984869 6.992736 7.000822 7.008940 7.017092 7.025279 7.033411 7.041398 7.050169 7.060652 7.071886 7.082910 7.093775 7.104537 7.115171 7.125650 7.136059 7.146477 7.156856 7.167146 7.177372 7.187553 7.197694 7.207793 7.217964 7.228317 7.238760 7.249197 7.259641 7.270103 7.280589 7.291099 7.301644 7.312237 7.322879 7.333571 7.344316 7.355117 7.365980 7.376915 7.387836 7.398662 7.409477 7.420369 7.431330 7.442354 7.453445 7.464608 7.475814 7.487035 7.498302 7.509645 7.521055 7.532523 7.544065 7.555700 7.567192 7.578306 7.589298 7.600424 7.611687 7.623087 7.634658 7.646433 7.658379 7.670465 7.682767 7.695361 7.708245 7.721422 7.734936 7.748833 7.762608 7.775749 7.788782 7.802227 7.816052 7.830225 7.844762 7.859680 7.874902 7.890348 7.906090 7.922194 7.938638 7.955395 7.972495 7.989967 8.007380 8.024306 8.041196 8.058501 8.076210 8.094310 8.112860 8.131920 8.151341 8.170978 8.191051 8.211782 8.233104 8.254946 8.277444 8.300735 8.322362 8.339869 8.355625 8.371998 8.388750 8.405651 8.422700 8.439902 8.456781 8.472860 8.488397 8.503649 8.518355 8.532249 8.545363 8.557728 8.565720
6.921439 6.924765 6.929141 6.935215 6.941607 6.948604 6.955900 6.963682 6.971679 6.980076 6.988601 6.997385 7.006173 7.015111 7.023903 7.033355 7.042952 7.053651 7.064483 7.075870 7.087025 7.098141 7.109108 7.120035 7.130838 7.141623 7.152323 7.162991 7.173582 7.184139 7.194641 7.205188 7.215735 7.226405 7.237098 7.247865 7.258630 7.269421 7.280231 7.291074 7.301950 7.312874 7.323843 7.334862 7.345936 7.357063 7.368260 7.379463 7.390711 7.401920 7.413185 7.424448 7.435797 7.447192 7.458663 7.470169 7.481737 7.493321 7.504969 7.516641 7.528382 7.540147 7.551999 7.563734 7.575466 7.586937 7.598429 7.609843 7.621407 7.633074 7.644917 7.656895 7.669078 7.681414 7.694005 7.706804 7.719913 7.733268 7.747011 7.760715 7.774642 7.788272 7.802144 7.816004 7.830300 7.844903 7.859897 7.875180 7.890828 7.906730 7.922987 7.939520 7.956417 7.973594 7.991158 8.008745 8.026554 8.044125 8.061947 8.079824 8.098162 8.116847 8.136024 8.155539 8.175549 8.195857 8.216755 8.238007 8.259916 8.282177 8.305305 8.327270 8.349162 8.368503 8.387730 8.405530 8.423955 8.442251 8.460784 8.478909 8.496955 8.514235 8.531205 8.547207 8.562687 8.576908 8.590553 8.600388 8.607925
6.906533 6.909333 6.914022 6.919689 6.926246 6.933598 6.941507 6.949735 6.958317 6.967289 6.976507 6.985826 6.995327 7.005091 7.015058 7.025169 7.035598 7.046516 7.057735 7.069065 7.080465 7.091895 7.103279 7.114543 7.125722 7.136850 7.147918 7.158913 7.169860 7.180784 7.191689 7.202580 7.213494 7.224469 7.235488 7.246534 7.257610 7.268717 7.279854 7.291017 7.302217 7.313462 7.324755 7.336100 7.347494 7.358938 7.370430 7.381967 7.393536 7.405123 7.416751 7.428443 7.440184 7.451956 7.463778 7.475667 7.487597 7.499545 7.511528 7.523568 7.535631 7.547686 7.559732 7.571770 7.583732 7.595548 7.607310 7.619110 7.630963 7.642882 7.654925 7.667150 7.679544 7.692104 7.704883 7.717937 7.731230 7.744726 7.758436 7.772374 7.786446 7.800555 7.814817 7.829343 7.844134 7.859189 7.874563 7.890314 7.906394 7.922760 7.939445 7.956483 7.973821 7.991405 8.009233 8.027300 8.045491 8.063689 8.082041 8.100689 8.119638 8.138894 8.158541 8.178662 8.199213 8.220146 8.241564 8.263573 8.285967 8.308542 8.331210 8.353879 8.376056 8.397245 8.417892 8.438437 8.458728 8.478615 8.498302 8.517994 8.537323 8.555922 8.573879 8.591288 8.607568 8.622143 8.634804 8.645343 8.651662
6.888828 6.893057 6.897924 6.903839 6.910087 6.918402 6.926796 6.935575 6.944564 6.954390 6.964312 6.974377 6.984217 6.995275 7.006068 7.016930 7.027753 7.039331 7.050876 7.062473 7.073877 7.085850 7.097569 7.109180 7.120657 7.132173 7.143584 7.154926 7.166161 7.177497 7.188751 7.199984 7.211192 7.222519 7.233848 7.245202 7.256560 7.268000 7.279449 7.290928 7.302439 7.314005 7.325616 7.337279 7.349002 7.360747 7.372556 7.384415 7.396340 7.408256 7.420254 7.432330 7.444539 7.456617 7.468825 7.481093 7.493441 7.505701 7.518032 7.530405 7.542889 7.555138 7.567473 7.579790 7.592140 7.604117 7.616154 7.628219 7.640452 7.652487 7.664755 7.677189 7.689847 7.702527 7.715485 7.728708 7.742345 7.755779 7.769633 7.783755 7.798210 7.812541 7.827226 7.842219 7.857704 7.873020 7.888853 7.905059 7.921677 7.938414 7.955549 7.973032 7.990978 8.008811 8.027069 8.045577 8.064418 8.082944 8.101838 8.121046 8.140807 8.160382 8.180584 8.201254 8.222496 8.243814 8.265784 8.288320 8.311834 8.334061 8.357114 8.380331 8.403934 8.425854 8.448156 8.470556 8.493905 8.514439 8.535816 8.557105 8.578422 8.597894 8.617104 8.635612 8.654155 8.667950 8.681175 8.692122 8.701717
6.873047 6.876141 6.881341 6.887659 6.894965 6.903126 6.911942 6.921209 6.931002 6.941396 6.952182 6.963153 6.974329 6.985726 6.997231 7.008729 7.020340 7.032180 7.044130 7.056074 7.068040 7.080059 7.092054 7.103954 7.115790 7.127597 7.139357 7.151048 7.162689 7.174293 7.185866 7.197412 7.208967 7.220569 7.232206 7.243866 7.255552 7.267272 7.279025 7.290807 7.302630 7.314502 7.326426 7.338399 7.350423 7.362494 7.374617 7.386796 7.399027 7.411304 7.423649 7.436082 7.448588 7.461151 7.473769 7.486442 7.499129 7.511787 7.524445 7.537131 7.549825 7.562503 7.575156 7.587779 7.600296 7.612630 7.624884 7.637157 7.649474 7.661859 7.674355 7.687004 7.699783 7.712672 7.725742 7.739067 7.752629 7.766410 7.780454 7.794804 7.809396 7.824171 7.839211 7.854604 7.870320 7.886333 7.902678 7.919394 7.936413 7.953673 7.971224 7.989118 8.007318 8.025789 8.044525 8.063521 8.082662 8.101830 8.121175 8.140850 8.160869 8.181244 8.202027 8.223270 8.244898 8.266831 8.289188 8.312087 8.335339 8.358753 8.382412 8.406401 8.430396 8.454080 8.477756 8.501729 8.525713 8.549418 8.572894 8.596188 8.618773 8.640129 8.660441 8.679898 8.698021 8.714327 8.728507 8.740250 8.747265
6.854172 6.858183 6.863638 6.871038 6.878986 6.887681 6.896635 6.906577 6.916842 6.928262 6.939867 6.952136 6.964217 6.976361 6.988400 7.000566 7.012698 7.025051 7.037392 7.049818 7.062149 7.074461 7.086637 7.098851 7.110953 7.123120 7.135197 7.147284 7.159253 7.171165 7.183009 7.194858 7.206696 7.218609 7.230542 7.242522 7.254512 7.266531 7.278569 7.290654 7.302773 7.314954 7.327181 7.339465 7.351796 7.364177 7.376621 7.389112 7.401669 7.414267 7.426954 7.439711 7.452582 7.465545 7.478656 7.491718 7.504847 7.517812 7.530828 7.543755 7.556777 7.569797 7.582869 7.595783 7.608632 7.621132 7.633595 7.645947 7.658428 7.671001 7.683803 7.696607 7.709610 7.722548 7.735743 7.749028 7.762695 7.776649 7.790967 7.805521 7.820402 7.835448 7.850845 7.866524 7.882641 7.899134 7.916134 7.933320 7.950911 7.968540 7.986557 8.004740 8.023389 8.042355 8.061722 8.081183 8.100878 8.120393 8.140182 8.160123 8.180576 8.201462 8.223008 8.244732 8.266994 8.289222 8.312051 8.335001 8.358680 8.382736 8.407382 8.432106 8.457171 8.481926 8.507056 8.532144 8.557797 8.583589 8.610154 8.635341 8.660357 8.682755 8.704633 8.724338 8.743702 8.761522 8.778275 8.790651 8.799828
6.834335 6.838784 6.845894 6.853873 6.862607 6.871980 6.881737 6.891622 6.902427 6.914942 6.928218 6.941307 6.954251 6.967099 6.979832 6.992435 7.005077 7.017933 7.030844 7.043656 7.056374 7.068999 7.081504 7.093859 7.106216 7.118731 7.131252 7.143636 7.155910 7.168107 7.180237 7.192316 7.204421 7.216631 7.228899 7.241170 7.253456 7.265769 7.278106 7.290465 7.302875 7.315358 7.327900 7.340483 7.353114 7.365798 7.378544 7.391361 7.404233 7.417140 7.430122 7.443223 7.456444 7.469790 7.483278 7.496926 7.510506 7.523786 7.536976 7.550283 7.563656 7.577040 7.590439 7.603854 7.617020 7.629673 7.642105 7.654607 7.667203 7.679915 7.692824 7.706008 7.719209 7.732165 7.745193 7.758605 7.772388 7.786522 7.801026 7.815914 7.831069 7.846374 7.861970 7.878006 7.894488 7.911427 7.928863 7.946842 7.965012 7.983019 8.001203 8.019896 8.039025 8.058518 8.078380 8.098614 8.118841 8.138681 8.158555 8.178885 8.199697 8.221018 8.242966 8.265652 8.288519 8.311010 8.333706 8.357189 8.381362 8.406130 8.431498 8.457469 8.483587 8.509395 8.535370 8.561992 8.589211 8.616986 8.645431 8.674662 8.702284 8.725899 8.747509 8.769115 8.790086 8.809786 8.827935 8.844254 8.854524
6.810048 6.819220 6.827279 6.836381 6.845588 6.856259 6.866710 6.877281 6.886302 6.902385 6.916757 6.930872 6.944384 6.958085 6.971393 6.984526 6.997247 7.011008 7.024394 7.037654 7.050690 7.063728 7.076521 7.089143 7.101324 7.114599 7.127446 7.140144 7.152647 7.165144 7.177517 7.189842 7.202039 7.214691 7.227250 7.239819 7.252376 7.264996 7.277618 7.290264 7.302901 7.315738 7.328576 7.341454 7.354380 7.367351 7.380396 7.393514 7.406760 7.419887 7.433174 7.446585 7.460180 7.473832 7.487741 7.501827 7.516463 7.529472 7.543006 7.556659 7.570522 7.584186 7.597995 7.611773 7.625922 7.638034 7.650546 7.663083 7.675862 7.688528 7.701570 7.714894 7.729050 7.741206 7.754256 7.767720 7.781727 7.795963 7.810700 7.825838 7.841587 7.856802 7.872657 7.888971 7.905881 7.923112 7.941051 7.959571 7.979274 7.996724 8.015336 8.034478 8.054298 8.074187 8.094665 8.115471 8.137192 8.156350 8.176473 8.197014 8.218308 8.239756 8.262182 8.285387 8.310422 8.331560 8.354576 8.378453 8.403450 8.428731 8.455009 8.481969 8.510314 8.535948 8.563038 8.590887 8.620073 8.649070 8.679919 8.711740 8.748217 8.767179 8.790388 8.813629 8.837741 8.858573 8.879425 8.898031 8.919489
6.795573 6.800769 6.809168 6.818782 6.829386 6.840758 6.852569 6.864491 6.877244 6.891542 6.906453 6.921040 6.935357 6.949464 6.963357 6.977031 6.990672 7.004460 7.018246 7.031877 7.045360 7.058704 7.071882 7.084869 7.097821 7.110896 7.123950 7.136846 7.149618 7.162304 7.174923 7.187496 7.200109 7.212846 7.225656 7.238482 7.251335 7.264220 7.277135 7.290073 7.303061 7.316116 7.329228 7.342381 7.355579 7.368831 7.382147 7.395537 7.408986 7.422476 7.436053 7.449763 7.463616 7.477621 7.491801 7.506179 7.520530 7.534633 7.548669 7.562824 7.577021 7.591185 7.605292 7.619321 7.632985 7.645993 7.658665 7.671319 7.684002 7.696764 7.709711 7.722948 7.736240 7.749355 7.762601 7.776289 7.790398 7.804904 7.819818 7.835154 7.850786 7.866592 7.882726 7.899342 7.916458 7.934091 7.952293 7.971118 7.990222 8.009265 8.028549 8.048382 8.068657 8.089271 8.110197 8.131411 8.152501 8.173055 8.193533 8.214394 8.235699 8.257515 8.279994 8.303288 8.326875 8.350234 8.373948 8.398600 8.424093 8.450336 8.477331 8.505085 8.533142 8.561046 8.589310 8.618446 8.648447 8.679298 8.711155 8.744167 8.775974 8.804216 8.830709 8.857273 8.883088 8.907340 8.929478 8.948955 8.961051
6.775904 6.781865 6.789844 6.800784 6.812416 6.825311 6.838316 6.852534 6.866637 6.881623 6.896477 6.911736 6.926541 6.941200 6.955539 6.969843 6.983948 6.998168 7.012250 7.026315 7.040171 7.053920 7.067435 7.080914 7.094198 7.107487 7.120614 7.133728 7.146676 7.159571 7.172377 7.185218 7.198053 7.211030 7.224043 7.237144 7.250261 7.263437 7.276626 7.289879 7.303148 7.316471 7.329841 7.343256 7.356725 7.370238 7.383823 7.397457 7.411170 7.424923 7.438799 7.452765 7.466900 7.481169 7.495663 7.510173 7.524848 7.539438 7.554213 7.568817 7.583554 7.598114 7.612667 7.626793 7.640701 7.653844 7.666805 7.679390 7.692063 7.704668 7.717562 7.730402 7.743608 7.756852 7.770504 7.784330 7.798669 7.813356 7.828517 7.843957 7.859811 7.875836 7.892313 7.909127 7.926517 7.944375 7.962913 7.981767 8.001234 8.020903 8.041215 8.061646 8.082677 8.103855 8.125444 8.146834 8.168345 8.189187 8.210211 8.231112 8.252581 8.274354 8.296991 8.319828 8.343555 8.367493 8.392382 8.417645 8.443989 8.470968 8.498894 8.527158 8.556125 8.585001 8.614707 8.644757 8.675968 8.707847 8.741234 8.773912 8.807300 8.838804 8.870962 8.900433 8.930000 8.956779 8.982194 9.000738 9.014709
6.754889 6.760943 6.770772 6.782095 6.795045 6.809752 6.825278 6.840691 6.856154 6.871834 6.887491 6.902888 6.918114 6.933258 6.948209 6.962856 6.977394 6.992015 7.006583 7.020960 7.035203 7.049370 7.063380 7.077154 7.090754 7.104243 7.117593 7.130774 7.143860 7.156928 7.169961 7.182945 7.195984 7.209181 7.222471 7.235794 7.249174 7.262641 7.276153 7.289669 7.303206 7.316780 7.330401 7.344081 7.357810 7.371573 7.385396 7.399296 7.413253 7.427248 7.441342 7.455596 7.469987 7.484493 7.499153 7.514004 7.528992 7.544061 7.559270 7.574677 7.590023 7.605048 7.619839 7.634483 7.648618 7.661879 7.674665 7.687374 7.699935 7.712281 7.724701 7.737489 7.750588 7.763941 7.777662 7.791860 7.806448 7.821336 7.836607 7.852345 7.868402 7.884627 7.901210 7.918338 7.935948 7.953977 7.972551 7.991800 8.011617 8.031895 8.052753 8.074310 8.096191 8.118026 8.139959 8.162138 8.184038 8.205138 8.226019 8.247266 8.268745 8.290327 8.312431 8.335476 8.359316 8.383802 8.409161 8.435611 8.462871 8.490653 8.519144 8.548526 8.578340 8.608128 8.638460 8.669908 8.702154 8.734885 8.768388 8.802950 8.837944 8.872739 8.907775 8.943493 8.977545 9.007584 9.033977 9.057095 9.071416
6.727819 6.738667 6.750206 6.763525 6.775918 6.795017 6.812356 6.829290 6.845454 6.862432 6.878767 6.894698 6.909768 6.925875 6.941181 6.956176 6.970755 6.986094 7.001105 7.015941 7.030311 7.045187 7.059564 7.073654 7.087420 7.101217 7.114740 7.128063 7.141065 7.154451 7.167595 7.180709 7.193756 7.207322 7.220869 7.234474 7.248002 7.261887 7.275676 7.289454 7.303226 7.317043 7.330904 7.344828 7.358857 7.372814 7.386889 7.401033 7.415298 7.429425 7.443726 7.458189 7.472958 7.487532 7.502451 7.517598 7.533054 7.548406 7.564129 7.580130 7.596813 7.611751 7.627159 7.642286 7.657409 7.669988 7.682603 7.695013 7.708025 7.719313 7.731473 7.744089 7.757313 7.770514 7.784342 7.798716 7.813927 7.828675 7.844228 7.860228 7.876824 7.892871 7.909561 7.926784 7.944960 7.962712 7.981517 8.001074 8.021536 8.042074 8.063597 8.085943 8.109751 8.131401 8.154229 8.177135 8.200533 8.220715 8.241464 8.262422 8.284809 8.304969 8.326929 8.349987 8.374426 8.398909 8.424845 8.452045 8.481229 8.508947 8.538503 8.568897 8.600584 8.630104 8.661098 8.693208 8.727858 8.759811 8.794481 8.830599 8.868786 8.905162 8.943909 8.984075 9.029103 9.057675 9.089033 9.116418 9.142445
6.707011 6.715696 6.729756 6.745882 6.763501 6.782043 6.800699 6.818661 6.836221 6.853672 6.870793 6.887365 6.903495 6.919291 6.934762 6.949913 6.965056 6.980505 6.996026 7.011390 7.026561 7.041502 7.056159 7.070478 7.084550 7.098465 7.112185 7.125673 7.138995 7.152216 7.165383 7.178541 7.191854 7.205482 7.219315 7.233233 7.247212 7.261229 7.275249 7.289245 7.303240 7.317263 7.331332 7.345468 7.359670 7.373936 7.388264 7.402651 7.417053 7.431427 7.445869 7.460474 7.475256 7.490226 7.505423 7.520885 7.536555 7.552381 7.568462 7.584900 7.601480 7.617986 7.634246 7.650092 7.664904 7.678060 7.690221 7.702049 7.713735 7.725471 7.737504 7.750081 7.763099 7.776455 7.790288 7.804735 7.819730 7.835211 7.851149 7.867513 7.884042 7.900473 7.917113 7.934276 7.952016 7.970393 7.989503 8.009443 8.030077 8.051270 8.073216 8.096115 8.119674 8.143600 8.167664 8.191638 8.214623 8.235723 8.255909 8.276148 8.296697 8.317812 8.339836 8.363117 8.387432 8.412560 8.438812 8.466500 8.495430 8.525405 8.556297 8.587976 8.619672 8.650610 8.681729 8.713969 8.747382 8.782018 8.818181 8.856177 8.895394 8.935218 8.976426 9.019795 9.063315 9.104978 9.143375 9.177098 9.198024
6.677518 6.691349 6.707243 6.729737 6.750161 6.770699 6.789736 6.809025 6.827097 6.845670 6.863370 6.881025 6.897557 6.913601 6.928661 6.944053 6.959054 6.975208 6.991105 7.007423 7.023042 7.038349 7.053092 7.067674 7.081838 7.096018 7.109862 7.123628 7.137024 7.150265 7.163182 7.176408 7.189632 7.203621 7.217675 7.232112 7.246387 7.260653 7.274849 7.289053 7.303229 7.317433 7.331693 7.346005 7.360417 7.374907 7.389579 7.404160 7.418837 7.433255 7.447849 7.462426 7.477365 7.492528 7.508130 7.523827 7.539902 7.555915 7.572436 7.589014 7.606223 7.623575 7.641748 7.658110 7.674053 7.686296 7.698174 7.708306 7.719394 7.730755 7.742992 7.755383 7.768545 7.781700 7.795622 7.809849 7.825048 7.840819 7.857643 7.874231 7.891358 7.907452 7.924146 7.940686 7.958436 7.976914 7.996659 8.016820 8.038059 8.059354 8.081885 8.104802 8.129230 8.154322 8.181190 8.205902 8.230599 8.250406 8.270300 8.288149 8.308019 8.328771 8.351489 8.374710 8.399626 8.424583 8.451342 8.478821 8.508586 8.539653 8.573304 8.605865 8.639516 8.669692 8.701241 8.731875 8.765683 8.801137 8.840048 8.879360 8.921395 8.962317 9.006782 9.050915 9.099387 9.148012 9.202391 9.240741 9.274527
