4.929392 4.921528 4.916449 4.911473 4.907249 4.902307 4.897751 4.893254 4.889070 4.883880 4.878959 4.874073 4.869319 4.864423 4.859688 4.855010 4.850757 4.844872 4.839434 4.834095 4.828982 4.823812 4.818881 4.814114 4.809769 4.804576 4.799891 4.795481 4.791700 4.787437 4.784222 4.781399 4.781767 4.768977 4.759381 4.750188 4.742052 4.733459 4.725514 4.717866 4.710739 4.702883 4.695462 4.688241 4.681275 4.674352 4.667648 4.661087 4.654822 4.647902 4.641254 4.634710 4.628297 4.621917 4.615629 4.609406 4.603250 4.597082 4.590962 4.584871 4.578800 4.572749 4.566693 4.560636 4.554525 4.548611 4.542628 4.536615 4.530552 4.524463 4.518312 4.512101 4.505800 4.499524 4.493139 4.486660 4.480052 4.473392 4.466559 4.459593 4.452292 4.445748 4.438844 4.431762 4.424417 4.417009 4.409299 4.401350 4.392900 4.385248 4.377003 4.368409 4.359080 4.350247 4.340221 4.329733 4.315673 4.316263 4.313286 4.309859 4.305253 4.301172 4.296380 4.291272 4.285585 4.280836 4.275606 4.270185 4.264487 4.258846 4.252945 4.246924 4.240395 4.235693 4.230508 4.225252 4.219809 4.214520 4.209075 4.203587 4.197789 4.193120 4.188093 4.182995 4.177455 4.172720 4.167132 4.161423 4.152569
4.893200 4.890203 4.885782 4.881513 4.877300 4.873047 4.868819 4.864679 4.860481 4.856079 4.851602 4.847179 4.842794 4.838428 4.834109 4.829861 4.825475 4.820740 4.815886 4.811142 4.806500 4.801953 4.797539 4.793293 4.789103 4.784857 4.780720 4.776858 4.773222 4.769765 4.766593 4.763810 4.759696 4.752527 4.744031 4.735932 4.728129 4.720521 4.713158 4.706089 4.699165 4.692232 4.685395 4.678754 4.672281 4.665946 4.659749 4.653694 4.647669 4.641566 4.635473 4.629481 4.623575 4.617739 4.611971 4.606265 4.600604 4.594973 4.589370 4.583795 4.578240 4.572700 4.567164 4.561626 4.556106 4.550623 4.545145 4.539636 4.534091 4.528507 4.522873 4.517181 4.511435 4.505640 4.499776 4.493818 4.487765 4.481613 4.475345 4.468945 4.462518 4.456172 4.449779 4.443211 4.436470 4.429560 4.422448 4.415099 4.407630 4.400157 4.392509 4.384517 4.376240 4.367733 4.358882 4.349575 4.341736 4.337289 4.334315 4.330894 4.327146 4.323188 4.318968 4.314432 4.309765 4.305152 4.300468 4.295588 4.290552 4.285403 4.280134 4.274734 4.269464 4.264579 4.259845 4.255024 4.250148 4.245245 4.240296 4.235281 4.230346 4.225637 4.220992 4.216243 4.211464 4.206726 4.201922 4.196945 4.193569
4.860006 4.857708 4.854963 4.851085 4.847389 4.843564 4.839799 4.835929 4.832097 4.828137 4.824188 4.820191 4.816250 4.812318 4.808457 4.804498 4.800541 4.796375 4.792229 4.788016 4.783924 4.779906 4.776028 4.772197 4.768493 4.764790 4.761274 4.757802 4.754567 4.751377 4.748572 4.744759 4.740680 4.734612 4.728282 4.720949 4.714013 4.707133 4.700506 4.693946 4.687599 4.681287 4.675130 4.669057 4.663150 4.657359 4.651710 4.646108 4.640595 4.635059 4.629591 4.624142 4.618781 4.613483 4.608250 4.603065 4.597929 4.592824 4.587750 4.582699 4.577668 4.572650 4.567637 4.562643 4.557649 4.552677 4.547691 4.542699 4.537671 4.532607 4.527493 4.522336 4.517118 4.511849 4.506505 4.501089 4.495578 4.489980 4.484263 4.478509 4.472664 4.466834 4.460888 4.454878 4.448692 4.442362 4.435831 4.429192 4.422367 4.415487 4.408359 4.401141 4.393629 4.386041 4.377999 4.371062 4.364407 4.359956 4.355791 4.352739 4.349247 4.345696 4.341872 4.337990 4.333891 4.329783 4.325526 4.321209 4.316730 4.312161 4.307452 4.302813 4.298146 4.293710 4.289268 4.284932 4.280514 4.276081 4.271583 4.267136 4.262675 4.258357 4.253993 4.249747 4.245431 4.241261 4.236886 4.233788 4.231194
4.827110 4.825660 4.823277 4.820477 4.817358 4.814018 4.810574 4.807141 4.803688 4.800184 4.796661 4.793149 4.789642 4.786138 4.782634 4.779132 4.775596 4.771989 4.768363 4.764768 4.761217 4.757720 4.754299 4.750974 4.747726 4.744535 4.741447 4.738508 4.735600 4.732602 4.729423 4.725974 4.721928 4.716959 4.711397 4.705571 4.699572 4.693493 4.687458 4.681592 4.675850 4.670189 4.664630 4.659194 4.653864 4.648629 4.643486 4.638433 4.633442 4.628484 4.623570 4.618713 4.613911 4.609161 4.604463 4.599817 4.595214 4.590643 4.586101 4.581582 4.577083 4.572598 4.568124 4.563658 4.559198 4.554743 4.550281 4.545799 4.541293 4.536755 4.532176 4.527549 4.522869 4.518133 4.513332 4.508453 4.503498 4.498466 4.493357 4.488167 4.482913 4.477610 4.472224 4.466722 4.461102 4.455365 4.449492 4.443470 4.437320 4.431067 4.424662 4.418057 4.411392 4.404803 4.398394 4.392269 4.386794 4.382337 4.378534 4.375024 4.371706 4.368479 4.365210 4.361766 4.358199 4.354563 4.350835 4.346992 4.343059 4.339061 4.335010 4.330919 4.326846 4.322849 4.318888 4.314923 4.310954 4.306982 4.303001 4.299007 4.295035 4.291120 4.287227 4.283322 4.279536 4.276001 4.272828 4.270127 4.268484
4.795663 4.793919 4.792006 4.789755 4.787546 4.784358 4.781338 4.778312 4.775331 4.772210 4.769123 4.766047 4.763033 4.759890 4.756810 4.753745 4.750720 4.747565 4.744464 4.741405 4.738456 4.735398 4.732472 4.729628 4.726903 4.724110 4.721471 4.718939 4.716722 4.713536 4.710546 4.707355 4.704098 4.699468 4.694777 4.689890 4.685211 4.679561 4.674243 4.669046 4.664021 4.658945 4.654008 4.649173 4.644485 4.639760 4.635170 4.630668 4.626257 4.621839 4.617494 4.613204 4.608988 4.604774 4.600625 4.596523 4.592467 4.588432 4.584427 4.580446 4.576483 4.572538 4.568602 4.564672 4.560742 4.556823 4.552889 4.548935 4.544948 4.540952 4.536909 4.532819 4.528674 4.524490 4.520236 4.515912 4.511494 4.507062 4.502531 4.497921 4.493212 4.488503 4.483675 4.478736 4.473631 4.468557 4.463305 4.457925 4.452377 4.446873 4.441166 4.435312 4.429077 4.423913 4.418506 4.413305 4.408165 4.404543 4.400987 4.397644 4.394073 4.391577 4.388721 4.385739 4.382578 4.379488 4.376258 4.372932 4.369454 4.366096 4.362608 4.359071 4.355470 4.352015 4.348512 4.344992 4.341397 4.337951 4.334433 4.330904 4.327337 4.323930 4.320473 4.317026 4.313390 4.310867 4.308298 4.306118 4.304130
4.763288 4.762345 4.760799 4.758991 4.756906 4.754529 4.751996 4.749437 4.746843 4.744200 4.741537 4.738883 4.736232 4.733577 4.730934 4.728317 4.725708 4.723086 4.720482 4.717930 4.715420 4.712945 4.710520 4.708160 4.705839 4.703531 4.701261 4.699054 4.696772 4.694274 4.691603 4.688802 4.685678 4.682041 4.678083 4.674002 4.669754 4.665298 4.660777 4.656331 4.651935 4.647562 4.643243 4.639006 4.634845 4.630754 4.626740 4.622810 4.618944 4.615119 4.611344 4.607623 4.603951 4.600320 4.596730 4.593184 4.589674 4.586190 4.582730 4.579292 4.575873 4.572469 4.569077 4.565690 4.562304 4.558919 4.555522 4.552106 4.548665 4.545197 4.541693 4.538146 4.534554 4.530916 4.527222 4.523462 4.519639 4.515756 4.511803 4.507771 4.503672 4.499512 4.495268 4.490918 4.486468 4.481927 4.477289 4.472547 4.467733 4.462881 4.457962 4.452948 4.447996 4.443265 4.438710 4.434282 4.430202 4.426685 4.423520 4.420491 4.417646 4.415036 4.412502 4.409891 4.407232 4.404554 4.401828 4.399025 4.396162 4.393258 4.390302 4.387288 4.384251 4.381228 4.378198 4.375135 4.372061 4.368991 4.365920 4.362840 4.359785 4.356790 4.353839 4.350919 4.348181 4.345778 4.343695 4.341916 4.340832
4.731856 4.731009 4.729854 4.728271 4.726558 4.724643 4.722676 4.720542 4.718405 4.716172 4.713942 4.711668 4.709434 4.707214 4.705030 4.702854 4.700709 4.698558 4.696450 4.694367 4.692350 4.690381 4.688503 4.686605 4.684764 4.682843 4.680985 4.678997 4.677037 4.674941 4.672791 4.670367 4.667774 4.664728 4.661515 4.658032 4.654505 4.650848 4.647235 4.643493 4.639825 4.636076 4.632396 4.628708 4.625134 4.621635 4.618226 4.614873 4.611588 4.608336 4.605138 4.601979 4.598873 4.595809 4.592793 4.589806 4.586854 4.583920 4.581011 4.578118 4.575247 4.572391 4.569546 4.566708 4.563869 4.561029 4.558176 4.555307 4.552412 4.549486 4.546519 4.543523 4.540480 4.537405 4.534273 4.531095 4.527847 4.524537 4.521152 4.517708 4.514191 4.510625 4.506969 4.503239 4.499395 4.495456 4.491378 4.487296 4.483128 4.479037 4.474854 4.470802 4.466693 4.462718 4.458784 4.455141 4.451675 4.448705 4.445917 4.443426 4.440987 4.438694 4.436362 4.434170 4.431904 4.429722 4.427474 4.425246 4.422912 4.420522 4.418056 4.415561 4.413019 4.410483 4.407914 4.405337 4.402719 4.400089 4.397415 4.394794 4.392175 4.389670 4.387174 4.384874 4.382638 4.380635 4.378787 4.377438 4.376449
4.700630 4.699982 4.698921 4.697683 4.696301 4.694808 4.693244 4.691649 4.689966 4.688140 4.686259 4.684412 4.682599 4.680815 4.679067 4.677359 4.675673 4.673989 4.672335 4.670738 4.669201 4.667725 4.666319 4.664996 4.663629 4.662094 4.660488 4.658909 4.657314 4.655660 4.653928 4.652103 4.650038 4.647583 4.644889 4.642108 4.639256 4.636354 4.633447 4.630581 4.627644 4.624523 4.621359 4.618296 4.615322 4.612427 4.609609 4.606866 4.604172 4.601500 4.598864 4.596281 4.593745 4.591252 4.588800 4.586390 4.584003 4.581624 4.579260 4.576922 4.574605 4.572303 4.570012 4.567725 4.565439 4.563151 4.560853 4.558535 4.556192 4.553818 4.551405 4.548947 4.546457 4.543951 4.541405 4.538796 4.536126 4.533393 4.530593 4.527720 4.524793 4.521829 4.518799 4.515673 4.512449 4.509125 4.505691 4.502133 4.498612 4.495286 4.492029 4.488716 4.485399 4.482131 4.478930 4.475820 4.472968 4.470542 4.468377 4.466310 4.464321 4.462392 4.460476 4.458523 4.456646 4.454956 4.453312 4.451574 4.449753 4.447863 4.445905 4.443882 4.441827 4.439773 4.437697 4.435578 4.433420 4.431231 4.429008 4.426750 4.424560 4.422544 4.420634 4.418766 4.416985 4.415338 4.413863 4.412599 4.411826
4.670051 4.669047 4.668165 4.667167 4.666156 4.664990 4.663844 4.662685 4.661672 4.660024 4.658543 4.657100 4.655732 4.654365 4.653063 4.651807 4.650635 4.649353 4.648162 4.647031 4.645990 4.644961 4.644053 4.643221 4.642663 4.641186 4.639964 4.638770 4.637651 4.636392 4.635159 4.633862 4.632690 4.630457 4.628353 4.626187 4.624059 4.621793 4.619618 4.617486 4.615647 4.612777 4.610222 4.607757 4.605430 4.603122 4.600916 4.598777 4.596733 4.594594 4.592537 4.590528 4.588574 4.586646 4.584766 4.582927 4.581146 4.579288 4.577483 4.575703 4.573948 4.572205 4.570472 4.568744 4.567012 4.565289 4.563550 4.561791 4.560004 4.558192 4.556335 4.554434 4.552454 4.550570 4.548599 4.546570 4.544468 4.542326 4.540107 4.537822 4.535431 4.533137 4.530725 4.528226 4.525602 4.522947 4.520125 4.517194 4.513902 4.511750 4.509260 4.506714 4.504058 4.501547 4.498987 4.496486 4.493835 4.492362 4.490741 4.489187 4.487595 4.486155 4.484626 4.483060 4.481201 4.480380 4.479245 4.478024 4.476665 4.475292 4.473818 4.472278 4.470635 4.469127 4.467525 4.465875 4.464153 4.462437 4.460637 4.458800 4.456771 4.455494 4.454054 4.452634 4.451198 4.449953 4.448730 4.447651 4.446430
4.638402 4.637994 4.637355 4.636665 4.635930 4.635154 4.634361 4.633576 4.632726 4.631739 4.630704 4.629713 4.628761 4.627851 4.626985 4.626172 4.625391 4.624627 4.623900 4.623234 4.622627 4.622077 4.621591 4.621171 4.620693 4.620023 4.619275 4.618557 4.617841 4.617094 4.616313 4.615494 4.614502 4.613203 4.611732 4.610228 4.608696 4.607141 4.605596 4.604094 4.602509 4.600716 4.598858 4.597078 4.595366 4.593716 4.592125 4.590593 4.589096 4.587606 4.586143 4.584721 4.583338 4.581990 4.580678 4.579403 4.578149 4.576900 4.575667 4.574459 4.573269 4.572095 4.570929 4.569768 4.568607 4.567444 4.566270 4.565077 4.563859 4.562612 4.561328 4.560001 4.558646 4.557277 4.555873 4.554414 4.552901 4.551334 4.549712 4.548029 4.546307 4.544564 4.542772 4.540904 4.538958 4.536934 4.534824 4.532617 4.530472 4.528552 4.526715 4.524822 4.522910 4.521014 4.519144 4.517303 4.515648 4.514329 4.513197 4.512102 4.511040 4.510006 4.508967 4.507888 4.506896 4.506116 4.505403 4.504612 4.503750 4.502824 4.501833 4.500776 4.499680 4.498573 4.497435 4.496242 4.495003 4.493723 4.492403 4.491040 4.489740 4.488609 4.487563 4.486517 4.485501 4.484545 4.483656 4.482844 4.482328
4.607160 4.606915 4.606598 4.606173 4.605744 4.605302 4.604871 4.604396 4.603918 4.603365 4.602824 4.602261 4.601750 4.601277 4.600856 4.600470 4.600134 4.599828 4.599576 4.599361 4.599208 4.599099 4.599058 4.598977 4.598912 4.598733 4.598555 4.598298 4.598061 4.597789 4.597505 4.597103 4.596622 4.595922 4.595146 4.594254 4.593356 4.592429 4.591530 4.590552 4.589581 4.588486 4.587415 4.586291 4.585244 4.584231 4.583275 4.582341 4.581450 4.580561 4.579705 4.578866 4.578065 4.577290 4.576553 4.575833 4.575147 4.574475 4.573826 4.573192 4.572577 4.571976 4.571383 4.570794 4.570206 4.569613 4.569009 4.568389 4.567744 4.567072 4.566363 4.565628 4.564853 4.564052 4.563202 4.562323 4.561386 4.560409 4.559376 4.558314 4.557204 4.556079 4.554897 4.553681 4.552391 4.551053 4.549620 4.548238 4.546820 4.545531 4.544227 4.543005 4.541743 4.540506 4.539270 4.538157 4.537123 4.536329 4.535617 4.535032 4.534456 4.533915 4.533347 4.532865 4.532379 4.532019 4.531640 4.531308 4.530898 4.530440 4.529916 4.529354 4.528736 4.528092 4.527398 4.526672 4.525892 4.525079 4.524210 4.523379 4.522541 4.521799 4.521070 4.520407 4.519744 4.519115 4.518506 4.518054 4.517710
4.575967 4.575908 4.575809 4.575685 4.575556 4.575440 4.575331 4.575221 4.575105 4.574978 4.574856 4.574757 4.574687 4.574653 4.574661 4.574718 4.574824 4.574975 4.575176 4.575428 4.575724 4.576050 4.576401 4.576767 4.577123 4.577442 4.577737 4.578019 4.578277 4.578496 4.578670 4.578791 4.578820 4.578719 4.578527 4.578287 4.578004 4.577687 4.577350 4.577004 4.576636 4.576231 4.575819 4.575429 4.575054 4.574688 4.574347 4.574046 4.573765 4.573482 4.573212 4.572973 4.572754 4.572552 4.572373 4.572230 4.572116 4.572024 4.571954 4.571904 4.571869 4.571846 4.571831 4.571821 4.571811 4.571795 4.571769 4.571725 4.571660 4.571569 4.571449 4.571294 4.571105 4.570878 4.570608 4.570287 4.569926 4.569539 4.569115 4.568647 4.568154 4.567653 4.567120 4.566532 4.565907 4.565265 4.564596 4.563894 4.563193 4.562525 4.561875 4.561227 4.560596 4.559997 4.559438 4.558930 4.558517 4.558246 4.558072 4.557953 4.557881 4.557848 4.557840 4.557844 4.557872 4.557941 4.558021 4.558082 4.558117 4.558122 4.558083 4.557988 4.557846 4.557662 4.557433 4.557154 4.556835 4.556487 4.556115 4.555724 4.555337 4.554975 4.554630 4.554298 4.553977 4.553665 4.553383 4.553154 4.553019
4.544831 4.544927 4.545044 4.545190 4.545354 4.545565 4.545792 4.546036 4.546304 4.546567 4.546865 4.547199 4.547589 4.547969 4.548415 4.548913 4.549469 4.550066 4.550722 4.551430 4.552207 4.552939 4.553728 4.554536 4.555371 4.556145 4.556933 4.557719 4.558530 4.559205 4.559888 4.560530 4.561148 4.561564 4.561959 4.562315 4.562686 4.562914 4.563177 4.563441 4.563728 4.563946 4.564201 4.564486 4.564856 4.565073 4.565377 4.565709 4.566083 4.566368 4.566689 4.567031 4.567430 4.567763 4.568158 4.568591 4.569062 4.569549 4.570062 4.570596 4.571150 4.571708 4.572276 4.572849 4.573421 4.573990 4.574547 4.575087 4.575601 4.576103 4.576570 4.577003 4.577392 4.577755 4.578064 4.578320 4.578495 4.578733 4.578898 4.579030 4.579111 4.579284 4.579399 4.579473 4.579443 4.579575 4.579604 4.579593 4.579532 4.579543 4.579521 4.579491 4.579417 4.579499 4.579556 4.579654 4.579771 4.580110 4.580471 4.580876 4.581267 4.581811 4.582322 4.582833 4.583326 4.583889 4.584420 4.584927 4.585369 4.585876 4.586305 4.586680 4.586996 4.587286 4.587517 4.587698 4.587808 4.587953 4.588036 4.588089 4.588109 4.588152 4.588178 4.588195 4.588202 4.588208 4.588206 4.588202 4.588194
4.513732 4.513926 4.514260 4.514677 4.515156 4.515676 4.516233 4.516827 4.517456 4.518121 4.518828 4.519584 4.520383 4.521222 4.522108 4.523051 4.524049 4.525101 4.526206 4.527363 4.528557 4.529773 4.531013 4.532280 4.533559 4.534833 4.536108 4.537391 4.538662 4.539904 4.541114 4.542293 4.543409 4.544431 4.545393 4.546326 4.547230 4.548107 4.548975 4.549855 4.550740 4.551622 4.552522 4.553457 4.554414 4.555373 4.556343 4.557328 4.558297 4.559218 4.560121 4.561034 4.561962 4.562912 4.563893 4.564914 4.565967 4.567046 4.568147 4.569270 4.570408 4.571558 4.572716 4.573878 4.575039 4.576197 4.577344 4.578475 4.579585 4.580672 4.581730 4.582753 4.583739 4.584687 4.585588 4.586433 4.587235 4.588003 4.588744 4.589463 4.590196 4.590971 4.591757 4.592518 4.593259 4.593988 4.594688 4.595341 4.595969 4.596593 4.597207 4.597801 4.598399 4.599024 4.599677 4.600358 4.601103 4.601951 4.602867 4.603815 4.604795 4.605806 4.606829 4.607841 4.608851 4.609866 4.610868 4.611838 4.612783 4.613708 4.614596 4.615433 4.616223 4.616969 4.617666 4.618311 4.618911 4.619478 4.620004 4.620485 4.620930 4.621348 4.621739 4.622101 4.622440 4.622757 4.623034 4.623253 4.623379
4.482437 4.482855 4.483392 4.484143 4.484919 4.485755 4.486638 4.487579 4.488572 4.489629 4.490743 4.491913 4.493137 4.494413 4.495745 4.497130 4.498575 4.500078 4.501637 4.503240 4.504886 4.506561 4.508272 4.510000 4.511752 4.513506 4.515277 4.517045 4.518825 4.520593 4.522370 4.524081 4.525764 4.527323 4.528855 4.530322 4.531802 4.533273 4.534761 4.536247 4.537755 4.539263 4.540806 4.542362 4.543968 4.545596 4.547293 4.548919 4.550558 4.552045 4.553542 4.554974 4.556474 4.558006 4.559587 4.561197 4.562846 4.564515 4.566211 4.567924 4.569655 4.571399 4.573151 4.574907 4.576663 4.578416 4.580157 4.581886 4.583592 4.585275 4.586925 4.588545 4.590126 4.591672 4.593166 4.594619 4.596008 4.597352 4.598611 4.599933 4.601235 4.602700 4.604142 4.605656 4.607086 4.608483 4.609820 4.611136 4.612407 4.613674 4.614910 4.616144 4.617355 4.618571 4.619769 4.621037 4.622334 4.623767 4.625230 4.626767 4.628291 4.629825 4.631346 4.632868 4.634371 4.635872 4.637346 4.638802 4.640218 4.641603 4.642939 4.644243 4.645494 4.646708 4.647868 4.648988 4.650049 4.651060 4.652018 4.652925 4.653778 4.654575 4.655327 4.656033 4.656699 4.657319 4.657922 4.658352 4.658689
4.451064 4.451665 4.452596 4.453586 4.454647 4.455790 4.457005 4.458281 4.459634 4.461080 4.462603 4.464189 4.465837 4.467549 4.469322 4.471152 4.473043 4.475000 4.477014 4.479073 4.481174 4.483315 4.485490 4.487696 4.489923 4.492162 4.494415 4.496688 4.498977 4.501272 4.503579 4.505898 4.508146 4.510241 4.512266 4.514306 4.516358 4.518422 4.520505 4.522615 4.524741 4.526868 4.529020 4.531219 4.533463 4.535748 4.538088 4.540496 4.542808 4.544861 4.546820 4.548845 4.550927 4.553052 4.555223 4.557442 4.559692 4.561959 4.564247 4.566559 4.568890 4.571232 4.573583 4.575936 4.578291 4.580645 4.582990 4.585319 4.587627 4.589910 4.592162 4.594377 4.596558 4.598712 4.600820 4.602867 4.604855 4.606785 4.608644 4.610421 4.612296 4.614451 4.616706 4.618879 4.620986 4.623038 4.625035 4.626976 4.628883 4.630785 4.632666 4.634512 4.636332 4.638137 4.639924 4.641691 4.643536 4.645554 4.647651 4.649732 4.651800 4.653858 4.655899 4.657916 4.659915 4.661906 4.663874 4.665805 4.667697 4.669549 4.671354 4.673106 4.674819 4.676505 4.678145 4.679725 4.681242 4.682696 4.684088 4.685418 4.686675 4.687849 4.688954 4.690001 4.690985 4.691895 4.692745 4.693544 4.694061
4.419089 4.420574 4.421741 4.423017 4.424291 4.425777 4.427309 4.428928 4.430604 4.432475 4.434401 4.436404 4.438474 4.440626 4.442841 4.445118 4.447447 4.449873 4.452343 4.454861 4.457426 4.460029 4.462675 4.465357 4.468085 4.470787 4.473532 4.476305 4.479121 4.481919 4.484774 4.487652 4.490683 4.493094 4.495661 4.498252 4.500904 4.503536 4.506220 4.508938 4.511725 4.514417 4.517188 4.520009 4.522916 4.525802 4.528818 4.531899 4.535316 4.537506 4.540030 4.542621 4.545336 4.548034 4.550813 4.553638 4.556522 4.559368 4.562259 4.565174 4.568110 4.571056 4.574011 4.576969 4.579921 4.582888 4.585839 4.588775 4.591686 4.594580 4.597438 4.600258 4.603018 4.605815 4.608536 4.611197 4.613760 4.616334 4.618762 4.621108 4.623075 4.626403 4.629352 4.632219 4.634938 4.637674 4.640309 4.642883 4.645367 4.647952 4.650457 4.652922 4.655324 4.657747 4.660099 4.662420 4.664564 4.667415 4.670089 4.672737 4.675320 4.677922 4.680476 4.682998 4.685469 4.687981 4.690437 4.692853 4.695219 4.697549 4.699821 4.702039 4.704171 4.706373 4.708485 4.710528 4.712499 4.714396 4.716220 4.717968 4.719655 4.721176 4.722637 4.724014 4.725343 4.726483 4.727617 4.728649 4.729950
4.389023 4.389800 4.391045 4.392449 4.394009 4.395720 4.397563 4.399521 4.401602 4.403814 4.406137 4.408552 4.411055 4.413640 4.416303 4.419034 4.421834 4.424701 4.427627 4.430605 4.433631 4.436702 4.439816 4.442972 4.446159 4.449368 4.452606 4.455879 4.459182 4.462509 4.465864 4.469252 4.472589 4.475793 4.478949 4.482137 4.485355 4.488599 4.491876 4.495193 4.498535 4.501888 4.505273 4.508711 4.512197 4.515728 4.519315 4.522968 4.526524 4.529817 4.533011 4.536271 4.539582 4.542935 4.546332 4.549773 4.553245 4.556731 4.560237 4.563766 4.567313 4.570871 4.574437 4.578006 4.581577 4.585146 4.588708 4.592255 4.595782 4.599287 4.602762 4.606201 4.609611 4.612996 4.616340 4.619625 4.622856 4.626032 4.629143 4.632175 4.635311 4.638734 4.642261 4.645707 4.649086 4.652412 4.655679 4.658883 4.662049 4.665200 4.668320 4.671393 4.674427 4.677430 4.680398 4.683328 4.686315 4.689452 4.692647 4.695807 4.698935 4.702035 4.705103 4.708133 4.711132 4.714109 4.717054 4.719953 4.722805 4.725608 4.728360 4.731055 4.733708 4.736332 4.738905 4.741406 4.743828 4.746168 4.748419 4.750578 4.752631 4.754561 4.756374 4.758075 4.759648 4.761077 4.762358 4.763484 4.764184
4.358180 4.359026 4.360190 4.361803 4.363575 4.365563 4.367702 4.370024 4.372471 4.375071 4.377782 4.380621 4.383552 4.386586 4.389696 4.392894 4.396153 4.399478 4.402861 4.406301 4.409791 4.413330 4.416916 4.420544 4.424211 4.427909 4.431646 4.435414 4.439219 4.443050 4.446922 4.450771 4.454628 4.458411 4.462203 4.465971 4.469780 4.473616 4.477491 4.481393 4.485334 4.489298 4.493306 4.497344 4.501433 4.505556 4.509745 4.513867 4.517993 4.521959 4.525928 4.529827 4.533787 4.537775 4.541806 4.545861 4.549952 4.554061 4.558193 4.562339 4.566504 4.570678 4.574861 4.579046 4.583233 4.587418 4.591593 4.595756 4.599901 4.604025 4.608121 4.612192 4.616229 4.620238 4.624201 4.628130 4.632004 4.635840 4.639602 4.643436 4.647262 4.651260 4.655250 4.659309 4.663291 4.667231 4.671111 4.674954 4.678746 4.682510 4.686229 4.689918 4.693560 4.697172 4.700737 4.704329 4.707913 4.711581 4.715242 4.718932 4.722577 4.726193 4.729770 4.733314 4.736816 4.740287 4.743716 4.747102 4.750438 4.753725 4.756956 4.760141 4.763274 4.766365 4.769399 4.772360 4.775242 4.778022 4.780710 4.783275 4.785728 4.788037 4.790223 4.792232 4.794096 4.795752 4.797252 4.798334 4.799117
4.327126 4.327936 4.329309 4.330999 4.332987 4.335258 4.337749 4.340401 4.343220 4.346213 4.349349 4.352598 4.355966 4.359456 4.363041 4.366694 4.370413 4.374198 4.378044 4.381946 4.385902 4.389912 4.393971 4.398075 4.402223 4.406412 4.410642 4.414912 4.419216 4.423551 4.427909 4.432283 4.436659 4.441020 4.445383 4.449762 4.454164 4.458593 4.463056 4.467556 4.472092 4.476663 4.481272 4.485925 4.490611 4.495318 4.500038 4.504762 4.509459 4.514098 4.518709 4.523321 4.527939 4.532571 4.537226 4.541915 4.546631 4.551367 4.556122 4.560895 4.565681 4.570477 4.575280 4.580087 4.584894 4.589698 4.594494 4.599277 4.604044 4.608793 4.613518 4.618217 4.622887 4.627527 4.632130 4.636690 4.641218 4.645724 4.650218 4.654706 4.659221 4.663795 4.668396 4.672989 4.677563 4.682111 4.686620 4.691078 4.695491 4.699865 4.704198 4.708487 4.712739 4.716961 4.721158 4.725338 4.729519 4.733718 4.737917 4.742102 4.746262 4.750391 4.754484 4.758535 4.762543 4.766509 4.770429 4.774302 4.778125 4.781896 4.785615 4.789281 4.792894 4.796453 4.799953 4.803392 4.806740 4.809968 4.813080 4.816082 4.818943 4.821635 4.824163 4.826536 4.828695 4.830582 4.832182 4.833483 4.834249
4.295260 4.296567 4.298113 4.300026 4.302118 4.304819 4.307635 4.310641 4.313796 4.317238 4.320803 4.324498 4.328255 4.332271 4.336320 4.340436 4.344607 4.348861 4.353171 4.357540 4.361961 4.366446 4.370980 4.375563 4.380194 4.384873 4.389598 4.394367 4.399184 4.404012 4.408880 4.413775 4.418703 4.423609 4.428547 4.433512 4.438520 4.443527 4.448582 4.453677 4.458816 4.463982 4.469195 4.474450 4.479766 4.485023 4.490327 4.495644 4.500983 4.506225 4.511489 4.516761 4.522078 4.527319 4.532613 4.537935 4.543289 4.548650 4.554034 4.559434 4.564851 4.570268 4.575695 4.581126 4.586558 4.591987 4.597408 4.602816 4.608204 4.613587 4.618943 4.624274 4.629574 4.634859 4.640103 4.645309 4.650452 4.655674 4.660841 4.665994 4.671120 4.676350 4.681551 4.686736 4.691864 4.697057 4.702180 4.707255 4.712276 4.717268 4.722210 4.727107 4.731949 4.736797 4.741597 4.746369 4.751108 4.755875 4.760608 4.765315 4.769978 4.774635 4.779241 4.783801 4.788312 4.792777 4.797191 4.801554 4.805864 4.810123 4.814327 4.818475 4.822568 4.826596 4.830570 4.834482 4.838359 4.841992 4.845562 4.849005 4.852326 4.855367 4.858261 4.860971 4.863565 4.865577 4.867414 4.868897 4.870149
4.263930 4.264957 4.266706 4.268873 4.271408 4.274264 4.277389 4.280733 4.284311 4.288139 4.292165 4.296336 4.300637 4.305051 4.309554 4.314122 4.318759 4.323469 4.328245 4.333083 4.337979 4.342933 4.347941 4.353004 4.358119 4.363287 4.368506 4.373775 4.379086 4.384432 4.389815 4.395236 4.400688 4.406166 4.411674 4.417220 4.422800 4.428412 4.434062 4.439754 4.445485 4.451255 4.457065 4.462915 4.468791 4.474678 4.480581 4.486503 4.492425 4.498331 4.504236 4.510156 4.516084 4.522014 4.527957 4.533925 4.539911 4.545912 4.551927 4.557957 4.563998 4.570048 4.576105 4.582166 4.588227 4.594285 4.600337 4.606375 4.612400 4.618408 4.624397 4.630363 4.636309 4.642232 4.648129 4.653993 4.659838 4.665678 4.671504 4.677310 4.683114 4.688933 4.694749 4.700541 4.706314 4.712072 4.717802 4.723485 4.729124 4.734721 4.740273 4.745780 4.751247 4.756680 4.762077 4.767435 4.772761 4.778065 4.783337 4.788571 4.793768 4.798930 4.804048 4.809116 4.814133 4.819095 4.824003 4.828857 4.833658 4.838404 4.843094 4.847724 4.852291 4.856793 4.861231 4.865607 4.869898 4.874081 4.878138 4.882051 4.885771 4.889245 4.892489 4.895520 4.898289 4.900747 4.902847 4.904542 4.905538
4.231573 4.232962 4.234884 4.237505 4.240377 4.243560 4.246925 4.250654 4.254577 4.258901 4.263381 4.268119 4.272906 4.277785 4.282723 4.287750 4.292838 4.298015 4.303258 4.308572 4.313941 4.319369 4.324850 4.330393 4.335989 4.341652 4.347367 4.353137 4.358952 4.364810 4.370713 4.376659 4.382649 4.388684 4.394763 4.400884 4.407047 4.413251 4.419499 4.425786 4.432115 4.438483 4.444894 4.451332 4.457804 4.464296 4.470815 4.477342 4.483884 4.490419 4.496967 4.503518 4.510090 4.516671 4.523277 4.529887 4.536519 4.543154 4.549805 4.556462 4.563136 4.569819 4.576510 4.583205 4.589900 4.596592 4.603277 4.609951 4.616611 4.623254 4.629873 4.636480 4.643064 4.649640 4.656187 4.662724 4.669231 4.675723 4.682189 4.688649 4.695092 4.701541 4.707970 4.714389 4.720778 4.727143 4.733469 4.739765 4.746014 4.752223 4.758384 4.764505 4.770578 4.776609 4.782596 4.788539 4.794437 4.800293 4.806105 4.811872 4.817595 4.823274 4.828905 4.834483 4.840006 4.845466 4.850870 4.856214 4.861505 4.866739 4.871920 4.877031 4.882081 4.887046 4.891954 4.896778 4.901545 4.906223 4.910856 4.915235 4.919460 4.923291 4.926931 4.930215 4.933322 4.936127 4.938687 4.940564 4.941922
4.198860 4.200434 4.202977 4.205886 4.209130 4.212676 4.216450 4.220381 4.224667 4.229505 4.234649 4.239852 4.245121 4.250460 4.255862 4.261318 4.266855 4.272498 4.278224 4.284007 4.289850 4.295754 4.301714 4.307728 4.313807 4.319963 4.326182 4.332452 4.338773 4.345145 4.351567 4.358039 4.364568 4.371160 4.377809 4.384505 4.391251 4.398046 4.404887 4.411774 4.418703 4.425669 4.432673 4.439713 4.446787 4.453888 4.461015 4.468165 4.475328 4.482493 4.489667 4.496861 4.504072 4.511303 4.518554 4.525827 4.533107 4.540380 4.547657 4.554953 4.562263 4.569582 4.576911 4.584243 4.591576 4.598907 4.606230 4.613543 4.620842 4.628124 4.635384 4.642621 4.649847 4.657077 4.664297 4.671487 4.678652 4.685793 4.692911 4.700006 4.707088 4.714168 4.721231 4.728269 4.735277 4.742253 4.749193 4.756091 4.762950 4.769772 4.776549 4.783278 4.789956 4.796583 4.803161 4.809688 4.816157 4.822566 4.828917 4.835218 4.841467 4.847664 4.853810 4.859904 4.865935 4.871892 4.877785 4.883624 4.889406 4.895128 4.900793 4.906401 4.911929 4.917356 4.922707 4.928005 4.933243 4.938414 4.943522 4.948573 4.953322 4.957527 4.961384 4.965087 4.968566 4.971750 4.974608 4.977107 4.978653
4.164574 4.167780 4.170702 4.174067 4.177583 4.181662 4.185817 4.190143 4.194205 4.200188 4.205858 4.211580 4.217266 4.223101 4.228946 4.234848 4.240765 4.246937 4.253132 4.259390 4.265698 4.272087 4.278524 4.285019 4.291547 4.298232 4.304949 4.311721 4.318542 4.325431 4.332372 4.339373 4.346421 4.353590 4.360806 4.368080 4.375407 4.382792 4.390228 4.397715 4.405253 4.412810 4.420415 4.428059 4.435740 4.443449 4.451192 4.458962 4.466771 4.474542 4.482349 4.490179 4.498036 4.505907 4.513808 4.521732 4.529705 4.537575 4.545491 4.553424 4.561378 4.569337 4.577307 4.585280 4.593255 4.601228 4.609194 4.617150 4.625090 4.633018 4.640921 4.648799 4.656624 4.664558 4.672436 4.680285 4.688097 4.695893 4.703656 4.711393 4.719088 4.726826 4.734520 4.742183 4.749809 4.757405 4.764958 4.772468 4.779925 4.787374 4.794764 4.802102 4.809384 4.816608 4.823776 4.830884 4.837941 4.844885 4.851779 4.858613 4.865392 4.872105 4.878766 4.885370 4.891938 4.898365 4.904754 4.911085 4.917366 4.923569 4.929722 4.935812 4.941879 4.947703 4.953512 4.959266 4.965010 4.970609 4.976246 4.981833 4.987728 4.991729 4.995989 5.000083 5.004105 5.007569 5.010887 5.013767 5.016930
4.133531 4.135413 4.138495 4.142097 4.146147 4.150573 4.155278 4.160166 4.165410 4.171182 4.177241 4.183345 4.189505 4.195730 4.202017 4.208363 4.214798 4.221354 4.228004 4.234723 4.241512 4.248370 4.255294 4.262277 4.269331 4.276467 4.283673 4.290939 4.298268 4.305664 4.313127 4.320660 4.328272 4.335973 4.343753 4.351601 4.359513 4.367487 4.375518 4.383603 4.391735 4.399905 4.408114 4.416365 4.424654 4.432977 4.441333 4.449721 4.458132 4.466555 4.474998 4.483468 4.491963 4.500481 4.509023 4.517589 4.526162 4.534725 4.543292 4.551876 4.560474 4.569082 4.577698 4.586317 4.594938 4.603557 4.612170 4.620773 4.629364 4.637940 4.646497 4.655032 4.663560 4.672095 4.680621 4.689117 4.697586 4.706026 4.714439 4.722821 4.731181 4.739527 4.747849 4.756135 4.764386 4.772599 4.780771 4.788899 4.796986 4.805035 4.813036 4.820982 4.828867 4.836689 4.844443 4.852129 4.859736 4.867255 4.874695 4.882064 4.889364 4.896597 4.903766 4.910875 4.917913 4.924875 4.931766 4.938597 4.945362 4.952059 4.958687 4.965246 4.971714 4.978065 4.984329 4.990536 4.996682 5.002766 5.008796 5.014782 5.020486 5.025669 5.030501 5.035154 5.039531 5.043536 5.047099 5.050147 5.052007
4.100607 4.102785 4.105768 4.109869 4.114336 4.119347 4.124557 4.130265 4.136086 4.142276 4.148579 4.155117 4.161678 4.168327 4.175029 4.181834 4.188711 4.195717 4.202806 4.209997 4.217256 4.224598 4.232002 4.239488 4.247034 4.254656 4.262338 4.270102 4.277927 4.285834 4.293813 4.301882 4.310034 4.318293 4.326632 4.335061 4.343557 4.352127 4.360754 4.369443 4.378177 4.386954 4.395773 4.404633 4.413532 4.422469 4.431443 4.440446 4.449480 4.458537 4.467621 4.476730 4.485866 4.495027 4.504213 4.513412 4.522628 4.531846 4.541077 4.550311 4.559560 4.568818 4.578084 4.587353 4.596623 4.605892 4.615155 4.624411 4.633655 4.642885 4.652096 4.661301 4.670487 4.679672 4.688835 4.697983 4.707102 4.716192 4.725252 4.734285 4.743288 4.752267 4.761213 4.770127 4.779001 4.787837 4.796628 4.805379 4.814085 4.822748 4.831364 4.839918 4.848413 4.856832 4.865181 4.873442 4.881620 4.889691 4.897681 4.905578 4.913404 4.921147 4.928828 4.936428 4.943968 4.951434 4.958839 4.966165 4.973428 4.980609 4.987721 4.994734 5.001665 5.008470 5.015204 5.021837 5.028419 5.034916 5.041390 5.047633 5.053765 5.059534 5.065194 5.070359 5.075329 5.079759 5.083826 5.086784 5.088944
4.067146 4.069353 4.072988 4.077273 4.082242 4.087922 4.094023 4.100252 4.106649 4.113257 4.120015 4.126864 4.133814 4.140872 4.148020 4.155232 4.162546 4.169997 4.177557 4.185201 4.192935 4.200763 4.208671 4.216640 4.224677 4.232785 4.240962 4.249201 4.257520 4.265934 4.274437 4.283023 4.291714 4.300531 4.309452 4.318453 4.327538 4.336709 4.345948 4.355238 4.364575 4.373960 4.383389 4.392860 4.402372 4.411925 4.421515 4.431140 4.440799 4.450490 4.460213 4.469964 4.479742 4.489546 4.499372 4.509218 4.519079 4.528952 4.538836 4.548730 4.558635 4.568547 4.578465 4.588387 4.598311 4.608233 4.618151 4.628060 4.637960 4.647849 4.657725 4.667587 4.677434 4.687269 4.697085 4.706880 4.716649 4.726390 4.736100 4.745780 4.755426 4.765039 4.774617 4.784157 4.793658 4.803116 4.812532 4.821904 4.831229 4.840508 4.849737 4.858914 4.868023 4.877045 4.885981 4.894835 4.903586 4.912210 4.920729 4.929164 4.937510 4.945761 4.953932 4.962041 4.970082 4.978051 4.985954 4.993795 5.001558 5.009227 5.016806 5.024303 5.031692 5.038946 5.046100 5.053189 5.060192 5.067088 5.073886 5.080594 5.087154 5.093508 5.099697 5.105761 5.111407 5.116344 5.120605 5.124220 5.126414
4.031479 4.035330 4.039556 4.044540 4.049435 4.056573 4.063361 4.070205 4.077003 4.084179 4.091360 4.098611 4.105840 4.113398 4.120944 4.128566 4.136245 4.144199 4.152225 4.160347 4.168518 4.176880 4.185277 4.193735 4.202246 4.210857 4.219522 4.228251 4.237018 4.245973 4.254980 4.264083 4.273269 4.282690 4.292192 4.301787 4.311432 4.321247 4.331093 4.340988 4.350927 4.360924 4.370963 4.381047 4.391171 4.401343 4.411553 4.421802 4.432086 4.442413 4.452775 4.463168 4.473592 4.484039 4.494513 4.505006 4.515520 4.526043 4.536583 4.547136 4.557702 4.568267 4.578841 4.589420 4.600000 4.610580 4.621155 4.631722 4.642276 4.652832 4.663369 4.673892 4.684395 4.694887 4.705358 4.715805 4.726224 4.736619 4.746980 4.757307 4.767599 4.777847 4.788057 4.798227 4.808357 4.818439 4.828479 4.838473 4.848423 4.858315 4.868161 4.877958 4.887722 4.897317 4.906861 4.916310 4.925678 4.934810 4.943860 4.952812 4.961712 4.970426 4.979100 4.987711 4.996267 5.004725 5.013131 5.021474 5.029783 5.037903 5.045974 5.053949 5.061854 5.069485 5.077061 5.084560 5.092073 5.099259 5.106470 5.113612 5.120750 5.127514 5.134326 5.141083 5.148193 5.153065 5.158031 5.162240 5.166078
3.997854 4.000931 4.005981 4.011899 4.018493 4.025577 4.032897 4.040203 4.047575 4.055095 4.062714 4.070380 4.078115 4.085937 4.093846 4.101843 4.109985 4.118330 4.126833 4.135448 4.144162 4.152964 4.161839 4.170776 4.179786 4.188875 4.198037 4.207264 4.216568 4.225961 4.235456 4.245062 4.254820 4.264768 4.274866 4.285072 4.295373 4.305754 4.316200 4.326695 4.337243 4.347844 4.358496 4.369194 4.379937 4.390724 4.401554 4.412426 4.423342 4.434303 4.445305 4.456343 4.467413 4.478509 4.489630 4.500774 4.511938 4.523119 4.534316 4.545527 4.556748 4.567977 4.579211 4.590450 4.601691 4.612932 4.624167 4.635396 4.646618 4.657830 4.669030 4.680214 4.691381 4.702528 4.713655 4.724756 4.735832 4.746880 4.757894 4.768870 4.779806 4.790694 4.801538 4.812336 4.823092 4.833803 4.844469 4.855086 4.865653 4.876164 4.886623 4.897032 4.907376 4.917640 4.927807 4.937866 4.947774 4.957492 4.967058 4.976512 4.985865 4.995128 5.004313 5.013435 5.022484 5.031453 5.040351 5.049187 5.057949 5.066625 5.075202 5.083666 5.091975 5.100081 5.108043 5.115917 5.123705 5.131408 5.139045 5.146633 5.154126 5.161472 5.168754 5.176053 5.183115 5.189693 5.195595 5.200634 5.203705
3.961149 3.965913 3.971541 3.979527 3.987062 3.994837 4.002448 4.010268 4.018001 4.026003 4.034018 4.042179 4.050303 4.058488 4.066660 4.075043 4.083523 4.092368 4.101328 4.110511 4.119720 4.129005 4.138340 4.147760 4.157244 4.166834 4.176488 4.186231 4.196028 4.205904 4.215818 4.225941 4.236180 4.246747 4.257431 4.268317 4.279235 4.290223 4.301258 4.312357 4.323504 4.334719 4.345982 4.357300 4.368660 4.380066 4.391511 4.403009 4.414552 4.426156 4.437799 4.449489 4.461206 4.472953 4.484725 4.496522 4.508340 4.520179 4.532035 4.543905 4.555788 4.567679 4.579577 4.591479 4.603384 4.615287 4.627187 4.639082 4.650969 4.662845 4.674707 4.686555 4.698384 4.710192 4.721976 4.733736 4.745469 4.757172 4.768845 4.780472 4.792058 4.803582 4.815061 4.826486 4.837871 4.849210 4.860507 4.871747 4.882938 4.894062 4.905137 4.916146 4.927110 4.938003 4.948864 4.959521 4.970061 4.980274 4.990369 5.000257 5.010106 5.019876 5.029592 5.039219 5.048781 5.058239 5.067633 5.076941 5.086200 5.095383 5.104541 5.113475 5.122297 5.130753 5.139112 5.147261 5.155423 5.163527 5.171667 5.179663 5.187647 5.195362 5.203166 5.210763 5.218524 5.226048 5.234024 5.239645 5.244403
3.923869 3.930031 3.939046 3.947608 3.955939 3.964261 3.972461 3.980422 3.988463 3.996898 4.005494 4.014016 4.022517 4.031052 4.039602 4.048147 4.056955 4.066292 4.075907 4.085550 4.095240 4.104999 4.114817 4.124682 4.134639 4.144729 4.154912 4.165146 4.175443 4.185810 4.196235 4.206702 4.217424 4.228611 4.240051 4.251530 4.263058 4.274647 4.286288 4.297972 4.309718 4.321543 4.333431 4.345364 4.357342 4.369369 4.381439 4.393550 4.405720 4.417968 4.430271 4.442606 4.454973 4.467372 4.479797 4.492248 4.504722 4.517220 4.529738 4.542272 4.554817 4.567373 4.579937 4.592505 4.605076 4.617647 4.630214 4.642776 4.655330 4.667872 4.680402 4.692915 4.705409 4.717878 4.730322 4.742742 4.755133 4.767493 4.779820 4.792115 4.804353 4.816514 4.828616 4.840676 4.852692 4.864661 4.876582 4.888459 4.900272 4.912006 4.923678 4.935307 4.946883 4.958399 4.969864 4.981291 4.992465 5.003174 5.013628 5.024038 5.034393 5.044676 5.054897 5.065065 5.075142 5.085086 5.094938 5.104742 5.114489 5.124166 5.133796 5.143399 5.152724 5.161520 5.170053 5.178592 5.187115 5.195606 5.204119 5.212704 5.221129 5.229161 5.237116 5.245308 5.253624 5.261949 5.270505 5.279517 5.285677
3.880428 3.896792 3.907006 3.916800 3.924823 3.934234 3.942710 3.950971 3.958532 3.968061 3.977043 3.985967 3.994697 4.003699 4.012547 4.021405 4.029858 4.040350 4.050459 4.060606 4.070693 4.080971 4.091245 4.101579 4.111902 4.122596 4.133282 4.144030 4.154786 4.165715 4.176609 4.187552 4.198202 4.210566 4.222633 4.234746 4.246820 4.259044 4.271275 4.283555 4.295852 4.308333 4.320835 4.333387 4.345977 4.358634 4.371327 4.384065 4.396811 4.409757 4.422709 4.435696 4.448709 4.461765 4.474845 4.487952 4.501081 4.514246 4.527427 4.540625 4.553836 4.567060 4.580292 4.593529 4.606769 4.620009 4.633246 4.646479 4.659702 4.672913 4.686111 4.699293 4.712458 4.725586 4.738693 4.751773 4.764829 4.777842 4.790830 4.803781 4.816727 4.829473 4.842210 4.854903 4.867561 4.880151 4.892703 4.905205 4.917686 4.929983 4.942263 4.954494 4.966718 4.978792 4.990905 5.002972 5.015336 5.025985 5.036929 5.047822 5.058752 5.069508 5.080256 5.090941 5.101635 5.111959 5.122292 5.132566 5.142845 5.152931 5.163079 5.173188 5.183680 5.192133 5.200991 5.209838 5.218840 5.227571 5.236495 5.245476 5.255006 5.262566 5.270827 5.279304 5.288715 5.296738 5.306532 5.316746 5.333109
3.863424 3.869702 3.878925 3.887764 3.896432 3.905142 3.913778 3.922220 3.930781 3.939774 3.948963 3.958113 3.967275 3.976502 3.985773 3.995068 4.004652 4.014791 4.025233 4.035726 4.046290 4.056946 4.067681 4.078486 4.089403 4.100472 4.111653 4.122905 4.134236 4.145655 4.157147 4.168697 4.180517 4.192816 4.205382 4.217999 4.230680 4.243433 4.256250 4.269122 4.282067 4.295102 4.308209 4.321372 4.334590 4.347865 4.361193 4.374570 4.388012 4.401540 4.415131 4.428761 4.442429 4.456132 4.469870 4.483636 4.497432 4.511255 4.525101 4.538966 4.552845 4.566739 4.580641 4.594550 4.608462 4.622375 4.636285 4.650189 4.664084 4.677968 4.691835 4.705686 4.719514 4.733315 4.747087 4.760830 4.774541 4.788217 4.801854 4.815453 4.828990 4.842442 4.855828 4.869165 4.882451 4.895680 4.908854 4.921972 4.935019 4.947975 4.960860 4.973689 4.986455 4.999147 5.011778 5.024356 5.036669 5.048501 5.060065 5.071571 5.083004 5.094348 5.105614 5.116807 5.127890 5.138820 5.149639 5.160388 5.171056 5.181633 5.192139 5.202594 5.212745 5.222341 5.231647 5.240931 5.250168 5.259340 5.268500 5.277699 5.286701 5.295271 5.303721 5.312364 5.321081 5.329755 5.338598 5.347825 5.354105
3.840143 3.845186 3.851230 3.859789 3.867997 3.876556 3.885039 3.893827 3.902600 3.911722 3.920923 3.930344 3.939788 3.949360 3.958974 3.968859 3.978892 3.989343 3.999956 4.010842 4.021797 4.032878 4.044048 4.055349 4.066751 4.078303 4.089953 4.101732 4.113597 4.125578 4.137628 4.149918 4.162352 4.175145 4.188079 4.201244 4.214466 4.227784 4.241170 4.254647 4.268191 4.281826 4.295529 4.309308 4.323147 4.337051 4.351010 4.365041 4.379129 4.393295 4.407514 4.421793 4.436110 4.450470 4.464865 4.479295 4.493754 4.508244 4.522757 4.537292 4.551843 4.566408 4.580984 4.595568 4.610155 4.624743 4.639329 4.653908 4.668478 4.683036 4.697577 4.712098 4.726598 4.741067 4.755509 4.769917 4.784290 4.798623 4.812918 4.827153 4.841337 4.855443 4.869493 4.883472 4.897397 4.911257 4.925058 4.938784 4.952441 4.966010 4.979511 4.992922 5.006265 5.019511 5.032702 5.045663 5.058482 5.070943 5.083260 5.095335 5.107345 5.119236 5.131042 5.142720 5.154297 5.165727 5.177055 5.188251 5.199358 5.210339 5.221251 5.231888 5.242364 5.252420 5.262330 5.271967 5.281560 5.291026 5.300467 5.309688 5.318828 5.327618 5.336422 5.344920 5.353492 5.361712 5.370281 5.376332 5.381379
3.816195 3.819669 3.825398 3.832164 3.839776 3.848047 3.856697 3.865450 3.874386 3.883590 3.892998 3.902550 3.912268 3.922174 3.932257 3.942505 3.952978 3.963734 3.974721 3.985888 3.997225 4.008720 4.020355 4.032112 4.044001 4.056034 4.068196 4.080474 4.092882 4.105434 4.118136 4.130992 4.144044 4.157331 4.170810 4.184433 4.198190 4.212067 4.226045 4.240104 4.254248 4.268482 4.282797 4.297185 4.311646 4.326182 4.340786 4.355454 4.370191 4.384997 4.399865 4.414785 4.429756 4.444774 4.459833 4.474926 4.490052 4.505210 4.520396 4.535602 4.550827 4.566069 4.581323 4.596583 4.611847 4.627111 4.642375 4.657635 4.672884 4.688118 4.703335 4.718533 4.733706 4.748848 4.763958 4.779036 4.794075 4.809068 4.824012 4.838905 4.853739 4.868502 4.883199 4.897833 4.912400 4.926893 4.941315 4.955663 4.969932 4.984112 4.998207 5.012221 5.026136 5.039930 5.053593 5.067110 5.080437 5.093529 5.106425 5.119167 5.131761 5.144209 5.156528 5.168731 5.180805 5.192734 5.204530 5.216205 5.227740 5.239115 5.250320 5.261345 5.272138 5.282646 5.292930 5.303047 5.312986 5.322737 5.332320 5.341758 5.350988 5.359950 5.368727 5.377400 5.385691 5.393320 5.400100 5.405841 5.409322
3.788772 3.793380 3.798531 3.804681 3.810897 3.819687 3.828253 3.837033 3.845906 3.855350 3.864928 3.874704 3.884559 3.894929 3.905375 3.916001 3.926780 3.937963 3.949306 3.960839 3.972493 3.984466 3.996542 4.008760 4.021105 4.033654 4.046325 4.059129 4.072022 4.085207 4.098491 4.111929 4.125500 4.139383 4.153395 4.167551 4.181794 4.196284 4.210839 4.225486 4.240214 4.255064 4.269991 4.284999 4.300072 4.315256 4.330498 4.345809 4.361181 4.376645 4.392164 4.407739 4.423354 4.439044 4.454766 4.470526 4.486317 4.502154 4.518015 4.533898 4.549793 4.565722 4.581656 4.597595 4.613538 4.629481 4.645425 4.661366 4.677305 4.693212 4.709110 4.724988 4.740845 4.756656 4.772439 4.788188 4.803906 4.819551 4.835157 4.850709 4.866210 4.881618 4.896967 4.912250 4.927475 4.942590 4.957642 4.972615 4.987512 5.002287 5.016983 5.031587 5.046127 5.060421 5.074629 5.088692 5.102629 5.116252 5.129745 5.143082 5.156322 5.169270 5.182128 5.194854 5.207458 5.219855 5.232126 5.244255 5.256281 5.267987 5.279570 5.290964 5.302196 5.313023 5.323697 5.334188 5.344603 5.354500 5.364318 5.373935 5.383416 5.392323 5.401135 5.409732 5.418550 5.424788 5.430959 5.436126 5.440747
3.763660 3.766547 3.771359 3.777133 3.783865 3.791550 3.799874 3.808522 3.817542 3.826979 3.836753 3.846781 3.857066 3.867608 3.878379 3.889346 3.900550 3.912031 3.923750 3.935668 3.947786 3.960109 3.972614 3.985283 3.998126 4.011153 4.024348 4.037693 4.051200 4.064883 4.078731 4.092733 4.106916 4.121307 4.135873 4.150582 4.165436 4.180435 4.195559 4.210787 4.226122 4.241569 4.257115 4.272749 4.288468 4.304270 4.320150 4.336102 4.352130 4.368239 4.384416 4.400651 4.416941 4.433281 4.449668 4.466095 4.482564 4.499074 4.515615 4.532182 4.548769 4.565372 4.581985 4.598604 4.615227 4.631852 4.648476 4.665098 4.681713 4.698315 4.714900 4.731464 4.747998 4.764494 4.780950 4.797369 4.813745 4.830073 4.846348 4.862567 4.878719 4.894794 4.910794 4.926723 4.942577 4.958350 4.974040 4.989643 5.005148 5.020543 5.035831 5.051017 5.066079 5.080997 5.095770 5.110402 5.124859 5.139108 5.153178 5.167093 5.180844 5.194420 5.207833 5.221096 5.234191 5.247102 5.259837 5.272408 5.284797 5.296981 5.308962 5.320745 5.332288 5.343552 5.354578 5.365405 5.376003 5.386342 5.396422 5.406246 5.415730 5.424793 5.433481 5.441842 5.449561 5.456323 5.462123 5.466956 5.469855
3.735662 3.738836 3.743224 3.749254 3.755882 3.763323 3.771170 3.779802 3.788759 3.798387 3.808323 3.818733 3.829314 3.840150 3.851185 3.862501 3.874043 3.885904 3.897995 3.910341 3.922876 3.935617 3.948523 3.961657 3.974962 3.988510 4.002221 4.016143 4.030203 4.044435 4.058815 4.073387 4.088126 4.103086 4.118207 4.133505 4.148932 4.164499 4.180175 4.195995 4.211920 4.227987 4.244151 4.260428 4.276782 4.293219 4.309729 4.326327 4.343001 4.359770 4.376608 4.393517 4.410476 4.427485 4.444530 4.461632 4.478769 4.495967 4.513193 4.530456 4.547729 4.565015 4.582309 4.599610 4.616915 4.634221 4.651528 4.668832 4.686133 4.703425 4.720712 4.737963 4.755191 4.772361 4.789498 4.806582 4.823633 4.840637 4.857594 4.874483 4.891307 4.908035 4.924691 4.941261 4.957760 4.974178 4.990524 5.006756 5.022894 5.038889 5.054783 5.070531 5.086174 5.101680 5.117055 5.132256 5.147295 5.162114 5.176766 5.191228 5.205541 5.219684 5.233688 5.247481 5.261112 5.274497 5.287712 5.300696 5.313517 5.326130 5.338554 5.350721 5.362658 5.374272 5.385657 5.396761 5.407663 5.418310 5.428784 5.438780 5.448465 5.457475 5.466156 5.474046 5.481527 5.488193 5.494256 5.498670 5.501862
3.706854 3.709910 3.714920 3.720778 3.727397 3.734689 3.742519 3.750757 3.759660 3.769487 3.779889 3.790514 3.801377 3.812491 3.823845 3.835429 3.847308 3.859548 3.872078 3.884827 3.897789 3.910962 3.924325 3.937860 3.951632 3.965704 3.980003 3.994453 4.009063 4.023838 4.038776 4.053875 4.069172 4.084704 4.100427 4.116297 4.132309 4.148456 4.164724 4.181100 4.197617 4.214309 4.231129 4.248033 4.265021 4.282094 4.299247 4.316477 4.333799 4.351234 4.368754 4.386334 4.403967 4.421652 4.439376 4.457132 4.474943 4.492834 4.510771 4.528720 4.546681 4.564651 4.582630 4.600613 4.618600 4.636589 4.654580 4.672570 4.690557 4.708540 4.726516 4.744485 4.762412 4.780261 4.798057 4.815827 4.833560 4.851247 4.868884 4.886465 4.903963 4.921350 4.938646 4.955869 4.973015 4.990078 5.007061 5.023963 5.040738 5.057337 5.073797 5.090152 5.106387 5.122490 5.138452 5.154269 5.169895 5.185285 5.200478 5.215510 5.230380 5.245085 5.259633 5.274029 5.288198 5.302064 5.315691 5.329147 5.342413 5.355468 5.368308 5.380929 5.393256 5.405220 5.416885 5.428319 5.439510 5.450449 5.461149 5.471624 5.481520 5.490484 5.498776 5.506660 5.513999 5.520663 5.526561 5.531605 5.534682
3.674990 3.680573 3.685766 3.691814 3.698239 3.705709 3.713462 3.721647 3.729636 3.740568 3.751230 3.762149 3.773190 3.784641 3.796275 3.808167 3.820212 3.833003 3.845942 3.859122 3.872493 3.886144 3.899955 3.913951 3.928001 3.942797 3.957633 3.972631 3.987756 4.003095 4.018575 4.034224 4.049983 4.066191 4.082500 4.098964 4.115551 4.132308 4.149166 4.166136 4.183140 4.200572 4.218025 4.235567 4.253176 4.270898 4.288690 4.306564 4.324487 4.342646 4.360842 4.379104 4.397409 4.415787 4.434191 4.452626 4.471038 4.489704 4.508336 4.526980 4.545622 4.564282 4.582945 4.601613 4.620284 4.638956 4.657630 4.676307 4.694987 4.713654 4.732328 4.750998 4.769710 4.788160 4.806642 4.825098 4.843534 4.861900 4.880229 4.898495 4.916730 4.934723 4.952674 4.970545 4.988350 5.006046 5.023677 5.041225 5.058757 5.075850 5.092916 5.109874 5.126734 5.143424 5.159994 5.176412 5.192730 5.208593 5.224349 5.239936 5.255384 5.270619 5.285728 5.300677 5.315589 5.329741 5.343843 5.357761 5.371519 5.384995 5.398281 5.411325 5.424220 5.436357 5.448344 5.460069 5.471610 5.482738 5.493742 5.504488 5.515506 5.523558 5.531806 5.539621 5.547149 5.553625 5.559721 5.564955 5.570581
3.648580 3.651623 3.656618 3.662472 3.669107 3.676444 3.684361 3.692733 3.701829 3.711917 3.722645 3.733662 3.744979 3.756608 3.768538 3.780755 3.793325 3.806311 3.819637 3.833227 3.847073 3.861165 3.875478 3.889990 3.904760 3.919848 3.935179 3.950679 3.966354 3.982211 3.998249 4.014464 4.030893 4.047574 4.064461 4.081509 4.098711 4.116060 4.133541 4.151138 4.168885 4.186812 4.204876 4.223032 4.241284 4.259632 4.278074 4.296606 4.315248 4.334018 4.352889 4.371830 4.390835 4.409897 4.429004 4.448144 4.467337 4.486607 4.505919 4.525241 4.544572 4.563911 4.583257 4.602608 4.621963 4.641319 4.660678 4.680039 4.699400 4.718760 4.738116 4.757469 4.776785 4.796028 4.815222 4.834389 4.853516 4.872592 4.891609 4.910559 4.929411 4.948136 4.966755 4.985287 5.003728 5.022077 5.040334 5.058503 5.076537 5.094391 5.112099 5.129693 5.147157 5.164478 5.181646 5.198655 5.215457 5.232008 5.248343 5.264502 5.280481 5.296280 5.311904 5.327361 5.342574 5.357466 5.372099 5.386534 5.400747 5.414714 5.428423 5.441867 5.454967 5.467646 5.479970 5.492002 5.503732 5.515147 5.526259 5.537081 5.547257 5.556434 5.564880 5.572868 5.580272 5.586967 5.592873 5.597913 5.600984
3.619126 3.622235 3.626610 3.632597 3.639272 3.646771 3.654804 3.663671 3.673029 3.683187 3.693771 3.704972 3.716456 3.728330 3.740512 3.753103 3.766022 3.779386 3.793067 3.807109 3.821407 3.835998 3.850802 3.865901 3.881202 3.896780 3.912556 3.928576 3.944769 3.961165 3.977745 3.994548 4.011552 4.028810 4.046260 4.063914 4.081724 4.099697 4.117799 4.136064 4.154448 4.172989 4.191635 4.210421 4.229296 4.248286 4.267367 4.286574 4.305880 4.325328 4.344864 4.364505 4.384205 4.403977 4.423785 4.443660 4.463561 4.483516 4.503491 4.523499 4.543513 4.563536 4.583565 4.603600 4.623638 4.643680 4.663724 4.683769 4.703816 4.723860 4.743906 4.763926 4.783931 4.803888 4.823828 4.843704 4.863551 4.883330 4.903055 4.922680 4.942220 4.961619 4.980923 5.000104 5.019198 5.038179 5.057078 5.075838 5.094499 5.113005 5.131393 5.149622 5.167726 5.185668 5.203457 5.221043 5.238437 5.255575 5.272513 5.289228 5.305760 5.322089 5.338247 5.354161 5.369878 5.385316 5.400553 5.415494 5.430222 5.444656 5.458832 5.472644 5.486135 5.499177 5.511886 5.524182 5.536169 5.547762 5.559068 5.569753 5.580009 5.589458 5.598414 5.606528 5.614103 5.620847 5.626894 5.631314 5.634455
3.588828 3.591582 3.596261 3.602033 3.608825 3.616562 3.625056 3.634119 3.643771 3.654028 3.664801 3.675997 3.687637 3.699746 3.712261 3.725123 3.738396 3.752142 3.766282 3.780732 3.795505 3.810616 3.826004 3.841610 3.857444 3.873515 3.889807 3.906300 3.923006 3.939936 3.957081 3.974432 3.992014 4.009854 4.027915 4.046164 4.064595 4.083205 4.101971 4.120869 4.139899 4.159063 4.178343 4.197722 4.217217 4.236849 4.256596 4.276443 4.296419 4.316549 4.336795 4.357120 4.377526 4.398020 4.418572 4.439153 4.459763 4.480405 4.501070 4.521753 4.542449 4.563156 4.583870 4.604589 4.625311 4.646036 4.666765 4.687497 4.708230 4.728959 4.749681 4.770396 4.791093 4.811767 4.832417 4.853048 4.873627 4.894123 4.914540 4.934886 4.955118 4.975196 4.995150 5.015008 5.034753 5.054366 5.073866 5.093272 5.112567 5.131733 5.150770 5.169678 5.188434 5.207012 5.225410 5.243621 5.261611 5.279343 5.296842 5.314136 5.331215 5.348070 5.364714 5.381157 5.397381 5.413368 5.429127 5.444669 5.459933 5.474858 5.489457 5.503741 5.517630 5.531038 5.544031 5.556673 5.568904 5.580663 5.591972 5.602856 5.613222 5.622978 5.632141 5.640730 5.648553 5.655422 5.661261 5.665993 5.668779
3.555777 3.559924 3.564816 3.570854 3.577435 3.585921 3.594737 3.604101 3.613906 3.624463 3.635406 3.646764 3.658352 3.670897 3.683661 3.696816 3.710296 3.724587 3.739184 3.754132 3.769267 3.785062 3.800987 3.817124 3.833448 3.850058 3.866856 3.883856 3.901019 3.918530 3.936212 3.954116 3.972220 3.990707 4.009384 4.028264 4.047287 4.066592 4.086009 4.105557 4.125217 4.145040 4.164953 4.184959 4.205005 4.225343 4.245726 4.266222 4.286802 4.307690 4.328649 4.349699 4.370759 4.392055 4.413332 4.434628 4.455932 4.477279 4.498634 4.520002 4.541374 4.562772 4.584171 4.605574 4.626980 4.648389 4.669802 4.691220 4.712647 4.734053 4.755465 4.776873 4.798281 4.819653 4.841028 4.862392 4.883787 4.904943 4.926097 4.947167 4.968171 4.988860 5.009471 5.029974 5.050440 5.070609 5.090747 5.110798 5.130765 5.150573 5.170275 5.189850 5.209318 5.228502 5.247547 5.266390 5.285046 5.303309 5.321375 5.339218 5.356894 5.374217 5.391381 5.408344 5.425121 5.441611 5.457917 5.474013 5.489983 5.505280 5.520393 5.535153 5.549605 5.563228 5.576525 5.589426 5.602111 5.613822 5.625303 5.636369 5.647047 5.656966 5.666442 5.675364 5.683957 5.690619 5.696733 5.701689 5.705890
3.524446 3.527520 3.532728 3.539132 3.546587 3.554951 3.564033 3.573643 3.583796 3.594509 3.605703 3.617299 3.629331 3.641833 3.654790 3.668187 3.682129 3.696724 3.711840 3.727347 3.743205 3.759379 3.775812 3.792453 3.809314 3.826412 3.843729 3.861250 3.878988 3.896955 3.915158 3.933601 3.952326 3.971371 3.990686 4.010221 4.029955 4.049868 4.069936 4.090136 4.110466 4.130927 4.151497 4.172155 4.192916 4.213793 4.234792 4.255918 4.277224 4.298759 4.320461 4.342266 4.364155 4.386107 4.408097 4.430097 4.452110 4.474144 4.496191 4.518247 4.540313 4.562388 4.584470 4.606556 4.628644 4.650736 4.672832 4.694933 4.717038 4.739141 4.761245 4.783349 4.805448 4.827537 4.849622 4.871707 4.893764 4.915765 4.937687 4.959512 4.981173 5.002600 5.023850 5.044976 5.065985 5.086884 5.107686 5.128407 5.149025 5.169518 5.189886 5.210128 5.230217 5.250131 5.269847 5.289346 5.308572 5.327473 5.346091 5.364468 5.382609 5.400522 5.418220 5.435717 5.452995 5.470038 5.486863 5.503483 5.519843 5.535888 5.551577 5.566874 5.581640 5.595742 5.609290 5.622394 5.635040 5.647211 5.658943 5.670271 5.681116 5.691397 5.701130 5.710330 5.718806 5.726364 5.732856 5.738138 5.741255
3.490042 3.494079 3.499443 3.506901 3.514833 3.523556 3.532800 3.542730 3.553127 3.564150 3.575597 3.587552 3.599839 3.612542 3.625482 3.639179 3.653309 3.668503 3.684106 3.700393 3.716828 3.733535 3.750432 3.767590 3.784945 3.802569 3.820399 3.838469 3.856727 3.875208 3.893863 3.912862 3.932110 3.951821 3.971770 3.992037 4.012443 4.033021 4.053731 4.074598 4.095585 4.116722 4.137953 4.159301 4.180710 4.202211 4.223729 4.245513 4.267415 4.289740 4.312170 4.334839 4.357486 4.380169 4.402852 4.425561 4.448270 4.471001 4.493739 4.516490 4.539243 4.562002 4.584766 4.607534 4.630305 4.653078 4.675858 4.698639 4.721428 4.744221 4.767023 4.789821 4.812625 4.835414 4.858216 4.881001 4.903799 4.926570 4.949375 4.971941 4.994406 5.016436 5.038352 5.060000 5.081642 5.103199 5.124705 5.146101 5.167410 5.188574 5.209623 5.230521 5.251293 5.271896 5.292367 5.312514 5.332425 5.351861 5.371047 5.389885 5.408553 5.426999 5.445261 5.463283 5.481103 5.498653 5.516012 5.533108 5.550018 5.566658 5.583154 5.598954 5.614340 5.628638 5.642499 5.655587 5.668444 5.680881 5.692987 5.704581 5.715749 5.726285 5.736351 5.745724 5.754571 5.762620 5.770191 5.775637 5.779737
3.454753 3.459312 3.466452 3.474197 3.482580 3.491639 3.501265 3.511350 3.522012 3.533366 3.545244 3.557475 3.570064 3.583016 3.596263 3.609740 3.624069 3.639873 3.656498 3.673291 3.690283 3.707503 3.724927 3.742531 3.760375 3.778522 3.796915 3.815498 3.834284 3.853287 3.872489 3.891874 3.911651 3.932032 3.952794 3.973714 3.994796 4.016043 4.037433 4.058942 4.080597 4.102424 4.124371 4.146384 4.168465 4.190611 4.212795 4.234989 4.257493 4.280614 4.304033 4.327433 4.350829 4.374233 4.397637 4.421028 4.444427 4.467854 4.491294 4.514732 4.538170 4.561612 4.585058 4.608509 4.631961 4.655414 4.678872 4.702337 4.725810 4.749291 4.772782 4.796288 4.819793 4.843278 4.866766 4.890281 4.913809 4.937341 4.960889 4.984469 5.007748 5.030385 5.052705 5.075030 5.097327 5.119568 5.141752 5.163879 5.185894 5.207741 5.229447 5.251041 5.272498 5.293795 5.314935 5.335922 5.356521 5.376497 5.396074 5.415473 5.434675 5.453663 5.472451 5.491052 5.509409 5.527463 5.545278 5.562918 5.580358 5.597571 5.614590 5.631447 5.647465 5.661969 5.675604 5.689013 5.702128 5.714881 5.727276 5.739317 5.750830 5.761643 5.771874 5.781642 5.790838 5.799353 5.807221 5.814480 5.819116
3.414906 3.425040 3.432858 3.441323 3.449654 3.459374 3.469270 3.479650 3.490204 3.502299 3.514536 3.527143 3.539926 3.553371 3.566816 3.580500 3.593353 3.611468 3.628724 3.646154 3.663508 3.681345 3.699244 3.717332 3.735503 3.754322 3.773240 3.792361 3.811625 3.831225 3.850932 3.870836 3.890589 3.912207 3.933660 3.955286 3.976984 3.998954 4.021015 4.043203 4.065437 4.088072 4.110722 4.133442 4.156152 4.179054 4.201853 4.224659 4.246957 4.271697 4.295914 4.320109 4.344162 4.368335 4.392435 4.416520 4.440556 4.464722 4.488852 4.512977 4.537093 4.561221 4.585347 4.609478 4.633616 4.657741 4.681878 4.706024 4.730185 4.754345 4.778528 4.802727 4.826979 4.851102 4.875291 4.899509 4.923818 4.948011 4.972369 4.996764 5.021727 5.044115 5.067054 5.090001 5.113070 5.135951 5.158856 5.181702 5.204546 5.226982 5.249383 5.271664 5.293864 5.315791 5.337656 5.359354 5.381239 5.401172 5.421280 5.441194 5.461010 5.480487 5.499827 5.518968 5.538018 5.556406 5.574719 5.592848 5.610924 5.628510 5.646188 5.663696 5.682104 5.695085 5.708934 5.722549 5.736177 5.749133 5.761918 5.774334 5.786613 5.797322 5.807860 5.817910 5.827787 5.836253 5.844861 5.852814 5.863131
3.388375 3.393082 3.400487 3.408583 3.417391 3.426934 3.437099 3.447773 3.459066 3.471089 3.483670 3.496636 3.509988 3.523727 3.537784 3.552089 3.567261 3.583921 3.601417 3.619094 3.636987 3.655126 3.673489 3.692050 3.710875 3.730024 3.749444 3.769081 3.788947 3.809057 3.829398 3.849951 3.870929 3.892545 3.914572 3.936785 3.959187 3.981776 4.004529 4.027419 4.050470 4.073705 4.097070 4.120509 4.144020 4.167599 4.191216 4.214838 4.238767 4.263302 4.288128 4.312928 4.337717 4.362509 4.387294 4.412062 4.436832 4.461627 4.486432 4.511231 4.536029 4.560829 4.585632 4.610438 4.635246 4.660056 4.684871 4.709696 4.734530 4.759375 4.784235 4.809113 4.833993 4.858860 4.883737 4.908647 4.933577 4.958517 4.983483 5.008492 5.033206 5.057290 5.081065 5.104849 5.128608 5.152309 5.175949 5.199525 5.222981 5.246256 5.269376 5.292366 5.315199 5.337848 5.360313 5.382599 5.404463 5.425672 5.446447 5.467012 5.487351 5.507448 5.527318 5.546974 5.566361 5.585423 5.604224 5.622830 5.641216 5.659359 5.677291 5.695047 5.711951 5.727330 5.741824 5.756074 5.770009 5.783554 5.796714 5.809489 5.821701 5.833173 5.844018 5.854350 5.864053 5.873012 5.881248 5.888784 5.893576
3.357137 3.361532 3.367427 3.375611 3.384393 3.394096 3.404420 3.415537 3.427198 3.439564 3.452419 3.465848 3.479662 3.493945 3.508504 3.523864 3.539682 3.556590 3.573928 3.591987 3.610219 3.628767 3.647534 3.666612 3.685922 3.705554 3.725433 3.745612 3.766024 3.786725 3.807650 3.828989 3.850633 3.872819 3.895297 3.918159 3.941202 3.964472 3.987906 4.011541 4.035317 4.059279 4.083345 4.107551 4.131819 4.156192 4.180573 4.205222 4.229969 4.255124 4.280368 4.305836 4.331269 4.356727 4.382171 4.407633 4.433084 4.458551 4.484017 4.509492 4.534963 4.560438 4.585914 4.611393 4.636875 4.662361 4.687854 4.713353 4.738864 4.764385 4.789923 4.815464 4.841021 4.866573 4.892151 4.917724 4.943326 4.968915 4.994556 5.019975 5.045313 5.070235 5.095067 5.119632 5.144203 5.168679 5.193105 5.217397 5.241595 5.265614 5.289498 5.313187 5.336718 5.360024 5.383153 5.405894 5.428344 5.450237 5.471825 5.492990 5.513936 5.534593 5.555019 5.575146 5.595030 5.614590 5.633923 5.652945 5.671752 5.690245 5.708571 5.726163 5.743325 5.759373 5.774958 5.789728 5.804228 5.818254 5.831896 5.844958 5.857529 5.869384 5.880690 5.891192 5.901065 5.910002 5.918335 5.924337 5.928813
3.324899 3.328481 3.334559 3.342044 3.350786 3.360636 3.371368 3.382756 3.394813 3.407550 3.420870 3.434678 3.449006 3.463888 3.479290 3.495179 3.511658 3.528831 3.546560 3.564707 3.583256 3.602190 3.621440 3.640942 3.660730 3.680840 3.701242 3.721908 3.742872 3.764167 3.785785 3.807721 3.830038 3.852802 3.875932 3.899350 3.923044 3.947002 3.971178 3.995522 4.020042 4.044747 4.069591 4.094529 4.119583 4.144777 4.170091 4.195507 4.221077 4.246854 4.272776 4.298778 4.324844 4.350956 4.377088 4.403214 4.429342 4.455477 4.481616 4.507756 4.533897 4.560044 4.586193 4.612344 4.638498 4.664657 4.690823 4.716999 4.743185 4.769378 4.795583 4.821801 4.848028 4.874261 4.900507 4.926774 4.953034 4.979261 5.005436 5.031539 5.057506 5.083270 5.108885 5.134408 5.159821 5.185101 5.210275 5.235365 5.260324 5.285106 5.309716 5.334166 5.358403 5.382376 5.406074 5.429484 5.452524 5.475110 5.497309 5.519190 5.540746 5.561969 5.582895 5.603560 5.623934 5.643986 5.663753 5.683274 5.702478 5.721297 5.739713 5.757710 5.775146 5.791876 5.808011 5.823655 5.838775 5.853336 5.867373 5.880919 5.893877 5.906145 5.917736 5.928663 5.938693 5.947597 5.955222 5.961416 5.965067
3.289078 3.294204 3.300285 3.307812 3.316072 3.326629 3.337659 3.349411 3.361748 3.375037 3.388834 3.403160 3.417797 3.433558 3.449589 3.466078 3.482941 3.500687 3.518774 3.537248 3.555908 3.575433 3.595097 3.615037 3.635217 3.655876 3.676786 3.697986 3.719388 3.741386 3.763604 3.786157 3.808997 3.832502 3.856280 3.880360 3.904620 3.929388 3.954282 3.979362 4.004582 4.030115 4.055744 4.081480 4.107208 4.133369 4.159507 4.185721 4.211978 4.238521 4.265102 4.291745 4.318375 4.345212 4.372010 4.398806 4.425592 4.452405 4.479213 4.506023 4.532828 4.559651 4.586471 4.613292 4.640117 4.666944 4.693781 4.720630 4.747497 4.774353 4.801230 4.828120 4.855029 4.881924 4.908844 4.935781 4.962777 4.989565 5.016386 5.043156 5.069903 5.096362 5.122794 5.149160 5.175569 5.201535 5.227527 5.253422 5.279233 5.304729 5.330096 5.355282 5.380352 5.404902 5.429280 5.453355 5.477160 5.500278 5.523111 5.545609 5.567889 5.589561 5.611033 5.632220 5.653160 5.673613 5.693831 5.713775 5.733590 5.752521 5.771274 5.789641 5.807668 5.824797 5.841553 5.857850 5.873881 5.888763 5.903340 5.917383 5.930914 5.943477 5.955448 5.966687 5.977449 5.985867 5.993542 5.999743 6.004973
3.255338 3.258973 3.265167 3.272847 3.281884 3.292149 3.303421 3.315479 3.328338 3.342016 3.356388 3.371332 3.386853 3.402957 3.419567 3.436604 3.454129 3.472201 3.490724 3.509604 3.528866 3.548537 3.568563 3.588892 3.609575 3.630660 3.652103 3.673860 3.695948 3.718383 3.741169 3.764307 3.787870 3.811931 3.836402 3.861191 3.886280 3.911646 3.937253 3.963065 3.989102 4.015386 4.041852 4.068438 4.095147 4.121985 4.148913 4.175895 4.202962 4.230149 4.257416 4.284728 4.312089 4.339508 4.366957 4.394408 4.421868 4.449338 4.476816 4.504295 4.531778 4.559262 4.586749 4.614237 4.641726 4.669222 4.696725 4.724241 4.751768 4.779306 4.806856 4.834419 4.861989 4.889560 4.917138 4.944729 4.972305 4.999837 5.027332 5.054798 5.082195 5.109482 5.136695 5.163870 5.190968 5.217944 5.244809 5.271564 5.298145 5.324482 5.350598 5.376515 5.402195 5.427600 5.452708 5.477495 5.501868 5.525732 5.549164 5.572243 5.594970 5.617348 5.639395 5.661129 5.682504 5.703474 5.724091 5.744406 5.764368 5.783921 5.803093 5.821910 5.840275 5.858090 5.875415 5.892311 5.908700 5.924500 5.939717 5.954358 5.968295 5.981401 5.993693 6.005188 6.015658 6.024879 6.032718 6.039042 6.042752
3.217965 3.222371 3.228563 3.237034 3.246469 3.257047 3.268397 3.280897 3.294110 3.308434 3.323371 3.339148 3.355325 3.372018 3.389116 3.406737 3.424771 3.443354 3.462317 3.481719 3.501416 3.521461 3.541727 3.562483 3.583530 3.605168 3.627107 3.649519 3.672158 3.695132 3.718383 3.742117 3.766244 3.791035 3.816204 3.841820 3.867662 3.893769 3.920018 3.946612 3.973376 4.000547 4.027842 4.055396 4.082957 4.110599 4.138268 4.166027 4.193827 4.221735 4.249688 4.277709 4.305747 4.333823 4.361901 4.390017 4.418130 4.446273 4.474416 4.502575 4.530726 4.558876 4.587026 4.615178 4.643332 4.671490 4.699657 4.727835 4.756029 4.784237 4.812470 4.840701 4.868946 4.897173 4.925419 4.953641 4.981877 5.010093 5.038307 5.066466 5.094596 5.122628 5.150635 5.178565 5.206484 5.234336 5.262199 5.289805 5.317299 5.344380 5.371300 5.397874 5.424314 5.450496 5.476456 5.501961 5.527086 5.551527 5.575571 5.599123 5.622401 5.645344 5.668067 5.690310 5.712255 5.733595 5.754650 5.775208 5.795554 5.815555 5.835266 5.854539 5.873434 5.891776 5.909705 5.927109 5.944107 5.960588 5.976670 5.991898 6.006508 6.019984 6.032737 6.044319 6.055118 6.064754 6.073409 6.079737 6.084241
3.179401 3.183982 3.191487 3.200257 3.210186 3.221172 3.233037 3.245601 3.259218 3.274239 3.290182 3.306566 3.323395 3.340673 3.358370 3.376457 3.395016 3.414129 3.433677 3.453541 3.473708 3.494165 3.514870 3.535783 3.557189 3.579374 3.602056 3.624952 3.648116 3.671602 3.695407 3.719533 3.744233 3.769763 3.795850 3.822221 3.848860 3.875749 3.902815 3.929990 3.957505 3.985588 4.013961 4.042346 4.070750 4.099185 4.127643 4.156117 4.184649 4.213278 4.241965 4.270671 4.299395 4.328134 4.356881 4.385626 4.414394 4.443207 4.472039 4.500862 4.529678 4.558491 4.587303 4.616116 4.644930 4.673748 4.702573 4.731412 4.760269 4.789145 4.818042 4.846967 4.875886 4.904769 4.933643 4.962538 4.991443 5.020350 5.049256 5.078162 5.107024 5.135801 5.164536 5.193271 5.222001 5.250718 5.279433 5.308156 5.336590 5.364439 5.391950 5.419365 5.446611 5.473613 5.500350 5.526807 5.552693 5.577720 5.602158 5.626278 5.650079 5.673560 5.696778 5.719790 5.742297 5.764004 5.785212 5.806221 5.826990 5.847476 5.867665 5.887543 5.906987 5.925873 5.944285 5.962310 5.979916 5.997073 6.013785 6.030058 6.045392 6.059289 6.072116 6.084233 6.095459 6.105609 6.114577 6.122256 6.126945
3.136255 3.144983 3.153147 3.162677 3.172847 3.184653 3.196976 3.210017 3.222921 3.239868 3.256553 3.273668 3.291017 3.308981 3.327233 3.345866 3.364709 3.384627 3.404720 3.425118 3.445711 3.466712 3.487806 3.509091 3.530069 3.553579 3.576790 3.600220 3.623753 3.647840 3.672113 3.696757 3.721392 3.748314 3.775210 3.802440 3.829808 3.857645 3.885505 3.913473 3.941063 3.970783 4.000071 4.029348 4.058513 4.087785 4.117000 4.146216 4.175373 4.204824 4.234224 4.263632 4.293025 4.322453 4.351862 4.381265 4.410612 4.440169 4.469670 4.499161 4.528633 4.558109 4.587579 4.617049 4.646526 4.675993 4.705474 4.734970 4.764491 4.794020 4.823587 4.853184 4.882864 4.912314 4.941847 4.971407 5.001007 5.030589 5.060207 5.089836 5.119538 5.148945 5.178434 5.207943 5.237531 5.267024 5.296658 5.326322 5.356464 5.384368 5.412693 5.440924 5.469151 5.496902 5.524527 5.551818 5.579159 5.604095 5.629063 5.653658 5.678076 5.701930 5.725696 5.749250 5.773141 5.794383 5.815970 5.837378 5.858710 5.879633 5.900374 5.920816 5.941097 5.960275 5.979254 5.997854 6.016173 6.033872 6.051342 6.068385 6.085711 6.098879 6.112203 6.124799 6.136875 6.147280 6.157035 6.165395 6.174340
3.101559 3.106549 3.114768 3.124456 3.135458 3.147618 3.160725 3.174571 3.189475 3.205757 3.222938 3.240535 3.258554 3.277001 3.295848 3.315067 3.334741 3.354952 3.375579 3.396501 3.417703 3.439166 3.460849 3.482708 3.505024 3.528082 3.551622 3.575386 3.599449 3.623890 3.648730 3.673991 3.699953 3.726893 3.754515 3.782521 3.810870 3.839519 3.868371 3.897333 3.926610 3.956409 3.986453 4.016465 4.046457 4.076442 4.106416 4.136375 4.166363 4.196422 4.226516 4.256607 4.286699 4.316792 4.346881 4.376959 4.407052 4.437188 4.467339 4.497478 4.527608 4.557733 4.587855 4.617976 4.648098 4.678223 4.708355 4.738503 4.768670 4.798858 4.829072 4.859317 4.889562 4.919775 4.949989 4.980234 5.010505 5.040793 5.071102 5.101434 5.131748 5.162005 5.192251 5.222534 5.252848 5.283190 5.313573 5.344010 5.374209 5.403876 5.433228 5.462487 5.491550 5.520316 5.548740 5.576780 5.604117 5.630440 5.656041 5.681217 5.705991 5.730388 5.754490 5.778377 5.801776 5.824416 5.846595 5.868611 5.890419 5.911973 5.933256 5.954252 5.974834 5.994876 6.014462 6.033682 6.052503 6.070898 6.088871 6.106429 6.123075 6.138313 6.152472 6.165885 6.178332 6.189599 6.199523 6.207947 6.213061
3.061873 3.067323 3.074921 3.085355 3.096911 3.109922 3.123736 3.138885 3.154650 3.171493 3.188904 3.207104 3.225664 3.244692 3.264091 3.283972 3.304236 3.325016 3.346143 3.367662 3.389431 3.411491 3.433717 3.456365 3.479238 3.502639 3.526230 3.550395 3.574768 3.599670 3.624924 3.650949 3.677535 3.705214 3.733436 3.762387 3.791632 3.821325 3.851129 3.881363 3.911636 3.942234 3.972867 4.003671 4.034408 4.065145 4.095847 4.126570 4.157281 4.188044 4.218809 4.249597 4.280372 4.311149 4.341910 4.372685 4.403451 4.434237 4.465019 4.495809 4.526587 4.557361 4.588131 4.618899 4.649669 4.680440 4.711222 4.742015 4.772828 4.803661 4.834526 4.865395 4.896290 4.927179 4.958098 4.989021 5.019983 5.050962 5.081977 5.112987 5.144014 5.175008 5.206033 5.237056 5.268138 5.299240 5.330434 5.361469 5.392487 5.423183 5.453858 5.484100 5.514246 5.543938 5.573341 5.601993 5.630092 5.657054 5.683444 5.709039 5.734283 5.758989 5.783498 5.807423 5.831170 5.854383 5.877380 5.899958 5.922382 5.944525 5.966426 5.987940 6.009112 6.029766 6.050040 6.069833 6.089258 6.108215 6.126815 6.144617 6.161847 6.177979 6.193490 6.207637 6.220970 6.232815 6.243514 6.251307 6.256898
3.020755 3.025948 3.034638 3.045131 3.057401 3.071424 3.086664 3.102584 3.119232 3.136660 3.154731 3.173314 3.192408 3.212011 3.232061 3.252493 3.273365 3.294734 3.316501 3.338572 3.360952 3.383650 3.406615 3.429796 3.453244 3.477007 3.501015 3.525197 3.549807 3.575098 3.600976 3.627346 3.654566 3.682993 3.712250 3.741959 3.772192 3.803019 3.834165 3.865353 3.896625 3.928023 3.959484 3.990945 4.022411 4.053885 4.085348 4.116776 4.148204 4.179664 4.211136 4.242599 4.274059 4.305522 4.336981 4.368423 4.399857 4.431292 4.462725 4.494153 4.525575 4.556993 4.588408 4.619821 4.651233 4.682646 4.714068 4.745506 4.776960 4.808433 4.839927 4.871448 4.902990 4.934552 4.966142 4.997770 5.029425 5.061097 5.092793 5.124520 5.156255 5.187976 5.219719 5.251518 5.283351 5.315197 5.347059 5.378943 5.410782 5.442510 5.474171 5.505810 5.537134 5.567850 5.598033 5.627760 5.656629 5.684242 5.710976 5.737212 5.762850 5.787788 5.812297 5.836646 5.860760 5.884564 5.908113 5.931456 5.954541 5.977317 5.999790 6.021968 6.043751 6.065036 6.085883 6.106352 6.126375 6.145887 6.164888 6.183377 6.201215 6.218266 6.234578 6.250203 6.264587 6.277175 6.287943 6.296867 6.302201
2.974443 2.982928 2.992553 3.004152 3.016139 3.032588 3.048912 3.065798 3.083036 3.101351 3.120047 3.139213 3.158641 3.179028 3.199648 3.220665 3.241999 3.264138 3.286556 3.309290 3.332155 3.355694 3.379296 3.403073 3.426935 3.451280 3.475627 3.500062 3.524164 3.550414 3.576536 3.603282 3.630389 3.660331 3.690612 3.721477 3.752156 3.784875 3.817159 3.849396 3.881488 3.913844 3.946101 3.978319 4.010406 4.042706 4.074882 4.107017 4.139095 4.171302 4.203473 4.235632 4.267742 4.299931 4.332066 4.364178 4.396262 4.428357 4.460436 4.492507 4.524569 4.556630 4.588686 4.620739 4.652796 4.684839 4.716897 4.748971 4.781075 4.813169 4.845303 4.877467 4.909673 4.941884 4.974148 5.006459 5.038850 5.071177 5.103579 5.136014 5.168510 5.200889 5.233349 5.265873 5.298553 5.331026 5.363662 5.396361 5.429189 5.461760 5.494507 5.527326 5.560631 5.591796 5.623181 5.653972 5.684424 5.711895 5.739007 5.765481 5.792115 5.816498 5.841256 5.865946 5.890659 5.914886 5.939049 5.963051 5.987010 6.010285 6.033448 6.056302 6.078886 6.100651 6.122105 6.143166 6.164003 6.183865 6.203473 6.222611 6.241372 6.259036 6.276352 6.293104 6.310000 6.322303 6.334218 6.344111 6.352839
2.932191 2.938768 2.949703 2.962782 2.977632 2.993878 3.011046 3.028660 3.046828 3.065661 3.085041 3.104849 3.125101 3.145813 3.166959 3.188519 3.210588 3.233263 3.256407 3.279880 3.303648 3.327677 3.351904 3.376267 3.400803 3.425550 3.450403 3.475259 3.500337 3.525858 3.551979 3.578858 3.607104 3.637327 3.668897 3.701181 3.733998 3.767166 3.800443 3.833585 3.866667 3.899765 3.932833 3.965824 3.998757 4.031652 4.064507 4.097313 4.130120 4.162977 4.195852 4.228715 4.261563 4.294391 4.327192 4.359960 4.392704 4.425437 4.458160 4.490871 4.523575 4.556273 4.588966 4.621655 4.654340 4.687019 4.719704 4.752405 4.785125 4.817867 4.850638 4.883446 4.916288 4.949165 4.982088 5.015070 5.048103 5.081179 5.114295 5.147447 5.180599 5.213719 5.246860 5.280073 5.313353 5.346694 5.380119 5.413651 5.447237 5.480831 5.514512 5.548358 5.582113 5.615521 5.648388 5.680521 5.711250 5.739907 5.767138 5.793591 5.819432 5.844830 5.870016 5.895225 5.920347 5.945271 5.970038 5.994687 6.019152 6.043367 6.067297 6.090905 6.114046 6.136575 6.158594 6.180202 6.201378 6.222096 6.242372 6.262222 6.281524 6.300155 6.318228 6.335857 6.352551 6.367816 6.381268 6.392521 6.399291
2.883363 2.892920 2.904710 2.921311 2.937726 2.955114 2.972735 2.991201 3.009955 3.029584 3.049606 3.070230 3.091102 3.112373 3.133859 3.156019 3.178569 3.202074 3.225927 3.250361 3.274881 3.299603 3.324376 3.349386 3.374460 3.399851 3.425178 3.450712 3.476067 3.501605 3.526665 3.553884 3.581841 3.613795 3.646466 3.681250 3.715489 3.749819 3.783861 3.817958 3.851830 3.885801 3.919643 3.953478 3.987144 4.020731 4.054178 4.087662 4.121094 4.154683 4.188244 4.221865 4.255404 4.288904 4.322351 4.355772 4.389158 4.422536 4.455895 4.489246 4.522585 4.555917 4.589251 4.622570 4.655889 4.689186 4.722495 4.755807 4.789151 4.822523 4.855937 4.889380 4.922870 4.956388 4.989968 5.023599 5.057312 5.091088 5.124977 5.158823 5.192721 5.226471 5.260299 5.294107 5.328089 5.362178 5.396471 5.430795 5.465280 5.499683 5.534349 5.568982 5.603944 5.638835 5.674329 5.707606 5.740148 5.768476 5.796047 5.821354 5.847194 5.872865 5.898752 5.924445 5.950232 5.975709 6.001146 6.026358 6.051541 6.076537 6.101468 6.125815 6.149819 6.172848 6.195492 6.217452 6.239210 6.260572 6.281698 6.302218 6.322348 6.341590 6.360549 6.378651 6.396529 6.413418 6.430517 6.442659 6.452511
2.833046 2.844839 2.862481 2.880026 2.897797 2.916115 2.934745 2.953453 2.972741 2.993112 3.014132 3.035364 3.056872 3.078718 3.100828 3.123131 3.146181 3.170534 3.195591 3.220755 3.246044 3.271477 3.296971 3.322444 3.348118 3.374216 3.400404 3.426346 3.452127 3.477831 3.503249 3.528170 3.555851 3.589545 3.625976 3.661864 3.697397 3.732758 3.767846 3.802557 3.837170 3.871967 3.906745 3.941302 3.975687 4.009949 4.044079 4.078064 4.112109 4.146416 4.180805 4.215097 4.249311 4.283470 4.317573 4.351621 4.385639 4.419653 4.453655 4.487635 4.521602 4.555562 4.589520 4.623484 4.657432 4.691341 4.725245 4.759178 4.793141 4.827137 4.861177 4.895268 4.929397 4.963549 4.997755 5.032047 5.066423 5.100884 5.135451 5.170149 5.204778 5.239144 5.273468 5.307970 5.342638 5.377460 5.412488 5.447777 5.483110 5.518273 5.553563 5.589278 5.625309 5.661547 5.698187 5.735428 5.769793 5.797806 5.822918 5.848585 5.874581 5.900683 5.926983 5.953570 5.980090 6.006187 6.032097 6.058058 6.083979 6.109775 6.135464 6.161067 6.185956 6.209504 6.232293 6.254905 6.277262 6.299287 6.321046 6.342604 6.363507 6.383306 6.402519 6.421670 6.440515 6.458811 6.476891 6.495089 6.507259
2.770936 2.800617 2.820347 2.840050 2.857322 2.877538 2.896678 2.915936 2.934443 2.956729 2.978444 3.000400 3.022303 3.044998 3.067605 3.090424 3.112491 3.139216 3.165149 3.191200 3.217063 3.243420 3.269588 3.295740 3.321351 3.348970 3.375877 3.402537 3.428262 3.455165 3.480331 3.504993 3.523845 3.567853 3.606027 3.643651 3.679474 3.716359 3.752208 3.787673 3.822327 3.858530 3.894068 3.929379 3.964351 3.999380 4.034123 4.068718 4.102860 4.138373 4.173464 4.208454 4.243276 4.278116 4.312850 4.347527 4.382123 4.416808 4.451435 4.486039 4.520626 4.555202 4.589785 4.624372 4.659013 4.693457 4.727968 4.762507 4.797097 4.831701 4.866366 4.901084 4.935901 4.970619 5.005456 5.040382 5.075450 5.110520 5.145797 5.181208 5.217099 5.251523 5.286460 5.321581 5.357032 5.392447 5.428246 5.464312 5.501110 5.536288 5.572351 5.608847 5.646469 5.682989 5.721446 5.760512 5.805790 5.824419 5.849237 5.874614 5.901861 5.927885 5.954927 5.982258 6.010370 6.036386 6.063000 6.089658 6.116542 6.142933 6.169548 6.196063 6.223433 6.245948 6.269274 6.292402 6.315644 6.338082 6.360597 6.382880 6.405774 6.424766 6.444553 6.464236 6.485049 6.502831 6.523147 6.543508 6.574178
2.754317 2.766344 2.784404 2.802505 2.820948 2.840035 2.859524 2.879171 2.899470 2.920916 2.943069 2.965489 2.988235 3.011365 3.034801 3.058467 3.082913 3.108690 3.135196 3.161831 3.188612 3.215553 3.242569 3.269576 3.296791 3.324437 3.352175 3.379665 3.406992 3.434237 3.461187 3.487628 3.516813 3.551995 3.589897 3.627240 3.664211 3.700996 3.737493 3.773599 3.809593 3.845758 3.881892 3.917793 3.953511 3.989095 4.024536 4.059824 4.095161 4.130752 4.166417 4.201978 4.237454 4.272868 4.308220 4.343512 4.378769 4.414019 4.449252 4.484462 4.519654 4.554838 4.590020 4.625205 4.660374 4.695506 4.730633 4.765789 4.800978 4.836204 4.871475 4.906802 4.942172 4.977569 5.013027 5.048575 5.084217 5.119950 5.155798 5.191784 5.227713 5.263388 5.299030 5.334863 5.370872 5.407049 5.443445 5.480115 5.516844 5.553417 5.590134 5.627291 5.664782 5.702496 5.740630 5.779383 5.815280 5.844845 5.871526 5.898774 5.926363 5.954066 5.981971 6.010164 6.038289 6.065987 6.093490 6.121032 6.148523 6.175871 6.203093 6.230206 6.256578 6.281581 6.305792 6.329787 6.353484 6.376803 6.399804 6.422546 6.444573 6.465428 6.485623 6.505672 6.525321 6.544321 6.562982 6.581617 6.594034
2.725671 2.735795 2.748420 2.766173 2.783930 2.802876 2.822212 2.842575 2.863350 2.885138 2.907425 2.930436 2.953783 2.977633 3.001768 3.026665 3.052004 3.078363 3.105114 3.132498 3.159999 3.187745 3.215561 3.243647 3.271801 3.300294 3.328718 3.357359 3.385805 3.414431 3.442552 3.472818 3.503784 3.538712 3.574325 3.612017 3.649134 3.686310 3.723170 3.760056 3.796690 3.833397 3.869950 3.906472 3.942803 3.979033 4.015103 4.051190 4.087207 4.123363 4.159475 4.195633 4.231695 4.267705 4.303651 4.339560 4.375424 4.411272 4.447093 4.482903 4.518692 4.554472 4.590250 4.626012 4.661774 4.697514 4.733268 4.769027 4.804823 4.840652 4.876529 4.912443 4.948414 4.984422 5.020505 5.056650 5.092892 5.129212 5.165662 5.202085 5.238580 5.274945 5.311411 5.347879 5.384545 5.421343 5.458372 5.495457 5.532733 5.569957 5.607475 5.644991 5.682871 5.720715 5.759195 5.795497 5.831102 5.862533 5.893249 5.921717 5.950751 5.979620 6.008725 6.037629 6.066635 6.095311 6.123942 6.152316 6.180646 6.208745 6.236748 6.264112 6.291093 6.317029 6.342527 6.367252 6.391702 6.415649 6.439269 6.462155 6.484543 6.505897 6.526840 6.546736 6.566244 6.584538 6.602841 6.615859 6.626305
2.695357 2.702744 2.715056 2.729836 2.746715 2.765325 2.785124 2.805567 2.826774 2.848861 2.871671 2.895049 2.919021 2.943615 2.968770 2.994422 3.020679 3.047647 3.075159 3.103049 3.131293 3.159868 3.188683 3.217648 3.246811 3.276220 3.305744 3.335249 3.364968 3.395131 3.425868 3.457308 3.490063 3.524746 3.560726 3.597372 3.634503 3.671940 3.709441 3.746765 3.783989 3.821190 3.858324 3.895344 3.932272 3.969131 4.005918 4.042627 4.079310 4.116017 4.152719 4.189386 4.226017 4.262608 4.299155 4.335653 4.372114 4.408551 4.444966 4.481361 4.517740 4.554109 4.590468 4.626821 4.663167 4.699508 4.735858 4.772229 4.808625 4.845050 4.881515 4.918028 4.954591 4.991201 5.027875 5.064628 5.101454 5.138344 5.175299 5.212316 5.249362 5.286405 5.323500 5.360701 5.398005 5.435409 5.472934 5.510608 5.548380 5.586203 5.624158 5.662329 5.700460 5.738294 5.775640 5.812309 5.847631 5.880935 5.912874 5.944096 5.974738 6.004938 6.034941 6.064992 6.094952 6.124681 6.154228 6.183646 6.212840 6.241714 6.270242 6.298403 6.326017 6.352913 6.379201 6.404992 6.430222 6.454825 6.478830 6.502265 6.524968 6.546775 6.567808 6.588190 6.607356 6.624744 6.639977 6.652672 6.660290
2.657656 2.667715 2.679226 2.693174 2.707767 2.727548 2.747391 2.768068 2.789317 2.812051 2.835350 2.859313 2.883636 2.909307 2.935273 2.961757 2.988643 3.016564 3.044827 3.073477 3.102257 3.131937 3.161655 3.191576 3.221574 3.252194 3.282788 3.313449 3.343687 3.376205 3.408481 3.441307 3.474413 3.510303 3.546462 3.583139 3.619566 3.657976 3.695890 3.733701 3.771311 3.809136 3.846811 3.884399 3.921810 3.959394 3.996809 4.034146 4.071389 4.108728 4.145998 4.183227 4.220376 4.257582 4.294710 4.331792 4.368827 4.405859 4.442860 4.479840 4.516798 4.553753 4.590694 4.627628 4.664564 4.701487 4.738427 4.775391 4.812398 4.849397 4.886452 4.923555 4.960720 4.997905 5.035167 5.072503 5.109950 5.147356 5.184874 5.222460 5.260147 5.297751 5.335480 5.373320 5.411366 5.449248 5.487349 5.525569 5.563977 5.602181 5.640626 5.679208 5.718346 5.755405 5.792762 5.829597 5.866175 5.899829 5.933217 5.966049 5.999168 6.029899 6.061108 6.092276 6.123502 6.154099 6.184644 6.215005 6.245354 6.274784 6.304106 6.333050 6.361663 6.389215 6.416372 6.443013 6.469369 6.494340 6.518959 6.542909 6.566290 6.588147 6.609428 6.629860 6.650246 6.665272 6.679647 6.691515 6.701894
2.624629 2.631235 2.642348 2.655868 2.671690 2.689710 2.709341 2.729996 2.751749 2.774675 2.798566 2.823216 2.848603 2.874703 2.901428 2.928689 2.956566 2.985139 3.014258 3.043773 3.073678 3.103965 3.134569 3.165425 3.196609 3.228195 3.260057 3.292072 3.324481 3.357521 3.391075 3.425028 3.459744 3.495590 3.532187 3.569158 3.606573 3.644507 3.682687 3.720837 3.759004 3.797233 3.835464 3.873634 3.911752 3.949824 3.987832 4.025758 4.063638 4.101509 4.139351 4.177146 4.214904 4.252633 4.290326 4.327977 4.365597 4.403199 4.440780 4.478341 4.515882 4.553410 4.590926 4.628434 4.665939 4.703446 4.740966 4.778510 4.816083 4.853687 4.891331 4.929022 4.966756 5.004532 5.042365 5.080267 5.118233 5.156254 5.194341 5.232504 5.270720 5.308971 5.347295 5.385733 5.424264 5.462871 5.501561 5.540343 5.579150 5.617918 5.656695 5.695531 5.734138 5.772223 5.809865 5.847140 5.883650 5.918990 5.953549 5.987717 6.021369 6.054381 6.087007 6.119502 6.151733 6.183569 6.215091 6.246376 6.277356 6.307962 6.338189 6.368029 6.397323 6.425913 6.453882 6.481318 6.508123 6.534209 6.559548 6.584120 6.607708 6.630095 6.651360 6.671579 6.690145 6.706452 6.720390 6.731851 6.738666
2.584995 2.592547 2.603063 2.617481 2.633415 2.651286 2.670268 2.691159 2.713008 2.736586 2.761024 2.786693 2.812856 2.839695 2.867046 2.895139 2.923792 2.953298 2.983294 3.013865 3.044717 3.075912 3.107229 3.139123 3.171244 3.204131 3.237174 3.270877 3.304642 3.338843 3.373272 3.408384 3.443945 3.480520 3.517540 3.555204 3.593061 3.631277 3.669512 3.708095 3.746635 3.785425 3.824175 3.863027 3.901740 3.940388 3.978937 4.017450 4.055897 4.094347 4.132751 4.171134 4.209460 4.247750 4.285985 4.324205 4.362386 4.400567 4.438721 4.476867 4.514983 4.553080 4.591164 4.629240 4.667314 4.705388 4.743479 4.781590 4.819736 4.857922 4.896163 4.934430 4.972751 5.011087 5.049491 5.087933 5.126460 5.165053 5.203733 5.242460 5.281262 5.320081 5.358997 5.397975 5.437088 5.476297 5.515683 5.554987 5.594363 5.633497 5.672706 5.711574 5.750450 5.788979 5.827332 5.865033 5.902294 5.938507 5.974274 6.009347 6.044210 6.078641 6.113037 6.146765 6.180358 6.213170 6.245775 6.277802 6.309730 6.341328 6.372661 6.403417 6.433687 6.463089 6.491930 6.520019 6.547599 6.574498 6.600906 6.626052 6.650326 6.672820 6.694336 6.713888 6.732306 6.748734 6.763608 6.774457 6.782253
2.543386 2.550899 2.563203 2.577578 2.593826 2.611749 2.631033 2.651363 2.673358 2.697639 2.723360 2.749675 2.776607 2.804178 2.832336 2.861029 2.890494 2.920968 2.952133 2.983674 3.015553 3.047735 3.080117 3.112595 3.145687 3.179910 3.214732 3.249619 3.284658 3.319938 3.355477 3.391293 3.427700 3.465007 3.502899 3.541055 3.579442 3.618024 3.656706 3.695395 3.734307 3.773657 3.813167 3.852558 3.891847 3.931052 3.970173 4.009209 4.048212 4.087232 4.126233 4.165178 4.204072 4.242921 4.281723 4.320473 4.359208 4.397964 4.436712 4.475422 4.514104 4.552764 4.591409 4.630047 4.668680 4.707313 4.745958 4.784633 4.823344 4.862098 4.900908 4.939783 4.978684 5.017575 5.056501 5.095511 5.134601 5.173764 5.213009 5.252341 5.291717 5.331093 5.370529 5.410084 5.449755 5.489546 5.529474 5.569560 5.609503 5.649001 5.688291 5.727605 5.766845 5.805910 5.844764 5.883366 5.921381 5.958467 5.994959 6.031188 6.067173 6.102935 6.138567 6.174161 6.209154 6.242980 6.276188 6.309326 6.342286 6.374959 6.407306 6.439290 6.470575 6.500825 6.530292 6.559227 6.587574 6.615279 6.642365 6.668856 6.693869 6.716521 6.737459 6.757331 6.775811 6.792572 6.807408 6.820114 6.827875
2.494265 2.508251 2.521272 2.536438 2.552563 2.571291 2.590752 2.611296 2.631423 2.658569 2.685103 2.712269 2.739718 2.768214 2.797092 2.826567 2.856186 2.888361 2.920599 2.953265 2.986087 3.019532 3.052907 3.086387 3.118999 3.156064 3.192226 3.228420 3.264434 3.300934 3.337404 3.374084 3.410553 3.449376 3.487991 3.526810 3.565629 3.604812 3.643893 3.682967 3.721540 3.762181 3.802277 3.842263 3.882039 3.921838 3.961493 4.001071 4.040510 4.080201 4.119771 4.159287 4.198729 4.238156 4.277511 4.316814 4.356010 4.395424 4.434739 4.474015 4.513247 4.552464 4.591661 4.630851 4.670048 4.709215 4.748409 4.787634 4.826906 4.866209 4.905587 4.945035 4.984630 5.023951 5.063430 5.102993 5.142666 5.182377 5.222198 5.262102 5.302171 5.341966 5.381944 5.422032 5.462304 5.502578 5.543108 5.583787 5.625086 5.664181 5.703850 5.743560 5.783415 5.822911 5.862443 5.901792 5.941395 5.978523 6.015908 6.053102 6.090360 6.127135 6.164134 6.201129 6.239117 6.272417 6.306670 6.340847 6.375130 6.408788 6.442314 6.475422 6.508495 6.538901 6.569187 6.598875 6.628192 6.656439 6.684417 6.711762 6.739773 6.760478 6.781646 6.801710 6.821035 6.837675 6.853338 6.866793 6.881258
2.458792 2.466569 2.479345 2.494340 2.511332 2.530098 2.550313 2.571648 2.594711 2.620110 2.647011 2.674581 2.702856 2.731870 2.761585 2.791960 2.823244 2.855690 2.888954 2.922700 2.956867 2.991397 3.026165 3.061046 3.096533 3.133121 3.170261 3.207400 3.244610 3.281960 3.319450 3.357083 3.395153 3.433952 3.473188 3.512567 3.552076 3.591704 3.631382 3.671040 3.710916 3.751251 3.791765 3.832178 3.872507 3.912766 3.952956 3.993073 4.033170 4.073294 4.113407 4.153471 4.193488 4.233463 4.273389 4.313262 4.353116 4.392984 4.432838 4.472651 4.512429 4.552183 4.591919 4.631646 4.671368 4.711088 4.750823 4.790587 4.830391 4.870243 4.910155 4.950138 4.990155 5.030169 5.070224 5.110365 5.150586 5.190879 5.231249 5.271699 5.312183 5.352655 5.393174 5.433797 5.474524 5.515352 5.556303 5.597393 5.638322 5.678787 5.719050 5.759369 5.799670 5.839878 5.879979 5.919963 5.959515 5.998321 6.036695 6.074952 6.113090 6.151113 6.189094 6.227108 6.264572 6.300902 6.336623 6.372260 6.407680 6.442749 6.477406 6.511589 6.544940 6.577098 6.608328 6.638894 6.668754 6.697867 6.726271 6.754003 6.780193 6.803971 6.825972 6.846829 6.866205 6.883756 6.899251 6.912458 6.920500
2.415542 2.423718 2.435197 2.450883 2.468327 2.487887 2.508753 2.531657 2.555663 2.581506 2.608249 2.636458 2.665253 2.695009 2.725417 2.756903 2.789143 2.822655 2.856829 2.891874 2.927284 2.963240 2.999312 3.036074 3.072965 3.110561 3.148296 3.186484 3.224646 3.262966 3.301355 3.340079 3.379021 3.418518 3.458242 3.498287 3.538404 3.578650 3.618892 3.659349 3.699833 3.740598 3.781354 3.822255 3.863044 3.903805 3.944489 3.985170 4.025802 4.066465 4.107093 4.147719 4.188291 4.228836 4.269320 4.309792 4.350208 4.390613 4.430978 4.471326 4.511636 4.551920 4.592186 4.632440 4.672689 4.712938 4.753205 4.793496 4.833828 4.874206 4.914651 4.955132 4.995683 5.036263 5.076932 5.117635 5.158433 5.199284 5.240221 5.281182 5.322207 5.363215 5.404302 5.445414 5.486640 5.527923 5.569357 5.610667 5.652020 5.693104 5.734194 5.775085 5.816019 5.856848 5.897634 5.938110 5.978380 6.018091 6.057602 6.096788 6.135936 6.174947 6.214020 6.252646 6.291161 6.328962 6.366661 6.403663 6.440578 6.476951 6.512972 6.548108 6.582577 6.615735 6.648131 6.679424 6.710063 6.739721 6.768797 6.796367 6.823025 6.847794 6.871440 6.892986 6.913198 6.931230 6.947452 6.959326 6.967786
2.370090 2.377564 2.390195 2.405668 2.423791 2.444372 2.466825 2.490563 2.515614 2.542002 2.569466 2.597749 2.627030 2.657494 2.688920 2.721094 2.754333 2.788958 2.824548 2.860685 2.897460 2.934966 2.972904 3.010973 3.049264 3.087863 3.126673 3.165595 3.204660 3.243904 3.283308 3.322856 3.362667 3.402858 3.443318 3.483934 3.524699 3.565602 3.606595 3.647631 3.688740 3.729953 3.771206 3.812442 3.853675 3.894921 3.936146 3.977315 4.018476 4.059672 4.100867 4.142022 4.183150 4.224270 4.265354 4.306376 4.347347 4.388281 4.429179 4.470041 4.510872 4.551677 4.592463 4.633236 4.674003 4.714769 4.755550 4.796362 4.837210 4.878102 4.919047 4.960058 5.001132 5.042273 5.083493 5.124808 5.166189 5.207602 5.249066 5.290601 5.332160 5.373695 5.415263 5.456919 5.498624 5.540341 5.582092 5.623898 5.665694 5.707414 5.749093 5.790761 5.832368 5.873861 5.915230 5.956466 5.997450 6.038060 6.078424 6.118666 6.158771 6.198720 6.238550 6.278296 6.317856 6.357122 6.396191 6.435155 6.473698 6.511503 6.548667 6.585291 6.620928 6.655134 6.688249 6.720611 6.751991 6.782160 6.811313 6.839642 6.866875 6.892740 6.917266 6.940477 6.961763 6.980512 6.996526 7.009606 7.017347
2.317165 2.328793 2.342350 2.358951 2.376797 2.399922 2.423610 2.448496 2.474227 2.501729 2.529866 2.558724 2.587626 2.619612 2.651678 2.684632 2.718138 2.754704 2.791721 2.829416 2.866907 2.906873 2.946364 2.985866 3.025253 3.065126 3.104939 3.144789 3.184498 3.224857 3.265117 3.305497 3.345933 3.387049 3.428236 3.469562 3.510854 3.552598 3.594256 3.635921 3.677545 3.719344 3.761076 3.802765 3.844293 3.886156 3.927858 3.969522 4.011113 4.052928 4.094681 4.136407 4.178020 4.219798 4.261448 4.303024 4.344524 4.385997 4.427415 4.468793 4.510133 4.551454 4.592752 4.634036 4.675317 4.716579 4.757865 4.799180 4.840549 4.881927 4.923379 4.964904 5.006518 5.048180 5.089958 5.131846 5.173913 5.215797 5.257841 5.299940 5.342136 5.384082 5.426137 5.468260 5.510596 5.552575 5.594771 5.637052 5.679443 5.721681 5.764001 5.806350 5.848832 5.890860 5.932960 5.974946 6.016893 6.058141 6.099363 6.140492 6.181761 6.222369 6.263163 6.303954 6.344844 6.385256 6.425825 6.466420 6.507554 6.546103 6.584906 6.623028 6.660709 6.695188 6.729119 6.762149 6.795131 6.824896 6.854651 6.883687 6.912091 6.938674 6.964405 6.988914 7.012864 7.031335 7.048534 7.062587 7.074649
2.269290 2.278092 2.292918 2.310989 2.331816 2.354909 2.379692 2.405583 2.432615 2.460821 2.489926 2.519654 2.550173 2.581649 2.614119 2.647619 2.682720 2.719998 2.758770 2.798350 2.838569 2.879254 2.920118 2.960872 3.001616 3.042448 3.083305 3.124122 3.164968 3.205910 3.246948 3.288081 3.329443 3.371168 3.413136 3.455223 3.497411 3.539682 3.581980 3.624251 3.666517 3.708801 3.751060 3.793249 3.835402 3.877551 3.919687 3.961801 4.003963 4.046247 4.088583 4.130904 4.173198 4.215453 4.257645 4.299750 4.341786 4.383767 4.425697 4.467583 4.509432 4.551254 4.593054 4.634837 4.676607 4.718369 4.760141 4.801943 4.843784 4.885674 4.927629 4.969660 5.011773 5.053972 5.096277 5.138707 5.181235 5.223835 5.266489 5.309182 5.351833 5.394360 5.436850 5.479389 5.521972 5.564592 5.607286 5.650096 5.692971 5.735865 5.778802 5.821807 5.864821 5.907783 5.950673 5.993467 6.036037 6.078248 6.120246 6.162176 6.204038 6.245832 6.287633 6.329512 6.371400 6.413232 6.455112 6.497144 6.539026 6.580451 6.621237 6.661204 6.699629 6.735787 6.770287 6.803736 6.836172 6.867639 6.898310 6.928363 6.957510 6.985462 7.012251 7.037911 7.061839 7.083430 7.102174 7.117558 7.126697
2.212614 2.224609 2.240241 2.261952 2.284567 2.309099 2.334664 2.361818 2.389829 2.419276 2.449362 2.480430 2.511762 2.543741 2.575531 2.609867 2.645127 2.684661 2.725008 2.767656 2.809764 2.852014 2.893982 2.936049 2.977889 3.019862 3.061709 3.103601 3.145342 3.187079 3.228684 3.270596 3.312590 3.355201 3.397914 3.440945 3.483885 3.526843 3.569733 3.612634 3.655471 3.698331 3.741112 3.783871 3.826516 3.869105 3.911538 3.954130 3.996694 4.039607 4.082497 4.125534 4.168417 4.211226 4.253926 4.296559 4.339102 4.381594 4.424025 4.466414 4.508759 4.551075 4.593374 4.635643 4.677905 4.720138 4.762388 4.804652 4.846971 4.889346 4.931799 4.974322 5.016942 5.059640 5.102470 5.145400 5.188487 5.231686 5.275096 5.318351 5.361653 5.404554 5.447513 5.490304 5.533312 5.576416 5.619688 5.663021 5.706481 5.749953 5.793534 5.837142 5.880862 5.924602 5.968479 6.012046 6.055539 6.098394 6.141196 6.183700 6.226382 6.269104 6.312025 6.354934 6.398015 6.440990 6.484244 6.527430 6.570954 6.614366 6.658388 6.700013 6.740814 6.777129 6.812505 6.845224 6.878186 6.910505 6.942586 6.973672 7.004125 7.033107 7.061225 7.087712 7.113152 7.136619 7.159171 7.175409 7.187881
2.153513 2.167490 2.189103 2.212011 2.236351 2.262256 2.289335 2.317195 2.346295 2.377092 2.408877 2.440941 2.473314 2.506024 2.538756 2.571192 2.606665 2.648510 2.693273 2.737501 2.781370 2.825058 2.868454 2.911451 2.954338 2.997402 3.040436 3.083232 3.125857 3.168380 3.210779 3.253031 3.295645 3.339131 3.382999 3.426759 3.470439 3.514071 3.557627 3.601080 3.644496 3.687940 3.731336 3.774608 3.817765 3.860816 3.903734 3.946488 3.989450 4.032988 4.076734 4.120317 4.163767 4.207109 4.250340 4.293458 4.336494 4.379481 4.422414 4.465288 4.508117 4.550913 4.593689 4.636457 4.679197 4.721888 4.764576 4.807307 4.850090 4.892936 4.935863 4.978888 5.021997 5.065178 5.108476 5.151936 5.195555 5.239327 5.283287 5.327468 5.371420 5.414691 5.457733 5.501001 5.544459 5.588074 5.631856 5.675817 5.719872 5.763933 5.808073 5.852365 5.896779 5.941284 5.985913 6.030699 6.075104 6.118593 6.161721 6.205044 6.248538 6.292178 6.336037 6.380186 6.424404 6.468472 6.512693 6.557377 6.602407 6.647671 6.693353 6.739643 6.782881 6.819410 6.852763 6.886470 6.920197 6.953609 6.986738 7.019613 7.051489 7.081618 7.110482 7.138562 7.165446 7.190723 7.214536 7.237025 7.251577
2.080435 2.112653 2.136669 2.162175 2.186568 2.214983 2.243224 2.272332 2.301064 2.334889 2.368112 2.401636 2.434528 2.469190 2.502276 2.535036 2.561831 2.614995 2.662073 2.708564 2.753158 2.798798 2.843326 2.887411 2.930610 2.975374 3.019400 3.063153 3.106476 3.149965 3.193021 3.235904 3.277828 3.323477 3.368194 3.412782 3.457041 3.501446 3.545623 3.589681 3.633493 3.677715 3.721684 3.765517 3.809119 3.852764 3.896093 3.939250 3.981628 4.026768 4.071132 4.115329 4.159225 4.203144 4.246867 4.290473 4.333934 4.377451 4.420862 4.464211 4.507507 4.550766 4.594011 4.637247 4.680539 4.723588 4.766721 4.809896 4.853148 4.896435 4.939827 4.983320 5.026982 5.070546 5.114319 5.158260 5.202468 5.246666 5.291257 5.336076 5.381868 5.424310 5.467729 5.511384 5.555451 5.599494 5.643845 5.688390 5.733259 5.777701 5.822459 5.867386 5.912605 5.957699 6.003192 6.048862 6.095585 6.138277 6.182051 6.226047 6.270547 6.314903 6.359758 6.404939 6.450946 6.495323 6.540680 6.586545 6.633630 6.679646 6.727712 6.776441 6.831657 6.858981 6.892666 6.926739 6.962523 6.996478 7.031143 7.065534 7.100598 7.130344 7.160523 7.189829 7.219348 7.244691 7.271224 7.296229 7.329824
2.051331 2.066019 2.088894 2.113454 2.139763 2.167885 2.197389 2.227845 2.259672 2.293291 2.327965 2.362961 2.398282 2.433932 2.469567 2.504846 2.543076 2.587565 2.634864 2.681525 2.727727 2.773652 2.819197 2.864255 2.909121 2.954086 2.998948 3.043504 3.087824 3.131982 3.175959 3.219738 3.263831 3.308754 3.354018 3.399134 3.444134 3.489050 3.533857 3.578529 3.623135 3.667742 3.712275 3.756659 3.800907 3.845029 3.889000 3.932791 3.976775 4.021324 4.066068 4.110640 4.155066 4.199376 4.243565 4.287631 4.331609 4.375529 4.419389 4.463183 4.506927 4.550632 4.594313 4.637982 4.681620 4.725206 4.768787 4.812410 4.856088 4.899830 4.943655 4.987585 5.031604 5.075702 5.119925 5.164319 5.208883 5.253613 5.298544 5.343710 5.388663 5.432951 5.477029 5.521354 5.565891 5.610607 5.655518 5.700636 5.745876 5.791153 5.836542 5.882118 5.927854 5.973718 6.019745 6.065970 6.111860 6.156879 6.201587 6.246545 6.291733 6.337132 6.382817 6.428867 6.475065 6.521194 6.567566 6.614493 6.661864 6.709570 6.757801 6.806750 6.852765 6.892190 6.928533 6.965296 7.002118 7.038637 7.074856 7.110778 7.145629 7.178638 7.210241 7.240882 7.270107 7.297465 7.323021 7.346843 7.362146
